ply
format ascii 1.0
element vertex 1273
property float x
property float y
property float z
property uchar red
property uchar green
property uchar blue
end_header
35.6888 -19.1069 -45.7234 181 189 206
35.172 -19.5867 -43.2292 188 195 205
35.5971 -18.8814 -42.0618 196 199 210
36.0222 -18.1762 -40.8944 191 190 206
35.5009 -18.6635 -38.4125 191 189 199
35.4511 -18.5573 -36.5926 183 188 204
34.9258 -19.0512 -34.1217 213 197 209
34.3982 -19.5488 -31.657 224 214 208
34.7644 -18.7524 -28.6946 209 199 194
34.2318 -19.2585 -26.2438 203 194 197
34.6512 -18.5627 -25.092 222 195 195
34.5929 -18.4706 -23.2954 218 223 206
34.0551 -18.9852 -20.8588 231 192 207
34.4112 -18.2057 -17.9244 216 185 175
34.8284 -17.5137 -16.7788 223 188 187
34.2844 -18.0386 -14.3592 223 220 194
37.8149 -12.7483 -10.5344 211 1 50
50.7963 5.38771 -10.1084 205 91 108
51.6522 6.80754 -7.75807 164 1 41
53.5526 9.39357 -8.40979 184 122 140
40.4398 -20.1529 -98.6248 208 68 86
38.5565 -21.9298 -90.0696 223 205 185
38.9969 -21.1992 -88.8602 236 218 228
38.5161 -21.6119 -86.2587 226 215 213
38.9554 -20.8832 -85.0524 197 203 198
38.4711 -21.3016 -82.4602 197 187 190
38.4469 -21.1492 -80.5656 179 165 188
37.9587 -21.5741 -77.9843 157 167 203
38.3952 -20.8501 -76.7858 195 201 222
37.9036 -21.2807 -74.2138 242 240 239
37.8743 -21.1368 -72.3333 229 232 246
37.3787 -21.574 -69.7722 239 233 240
37.8124 -20.8547 -68.5815 181 195 227
37.3134 -21.2975 -66.0297 183 178 211
37.7458 -20.58 -64.8421 199 200 205
37.2435 -21.0285 -62.2998 192 191 196
37.2068 -20.8968 -60.4394 222 190 190
36.7005 -21.3518 -57.9079 196 126 183
37.1301 -20.6391 -56.7281 230 224 203
36.6204 -21.0997 -54.206 222 225 231
37.0489 -20.3889 -53.0292 221 220 225
37.4774 -19.678 -51.8525 229 221 229
37.8625 -18.8468 -48.8341 234 224 220
36.8729 -19.9111 -45.6688 243 230 227
37.2991 -19.204 -44.4983 224 214 220
36.7781 -19.6835 -42.0073 235 220 221
37.2032 -18.9782 -40.84 214 223 218
36.6787 -19.4634 -38.3582 229 224 216
37.1027 -18.76 -37.194 228 209 217
37.0507 -18.6538 -35.3757 204 211 222
36.5211 -19.1473 -32.908 214 207 213
35.9893 -19.6447 -30.4466 211 191 200
35.9328 -19.5459 -28.6407 198 191 202
36.3534 -18.8482 -27.4858 201 190 210
35.8164 -19.354 -25.0383 199 193 213
36.2359 -18.6582 -23.8865 201 197 221
36.1754 -18.566 -22.0915 196 189 220
35.6334 -19.0803 -19.6581 190 194 207
36.0511 -18.3873 -18.511 189 183 210
37.656 -15.5326 -12.143 201 1 69
38.0732 -14.8405 -10.9974 217 9 34
38.9754 -13.5364 -10.4809 223 1 45
54.7461 8.58299 -8.35477 200 158 165
41.6743 -20.9913 -98.5679 198 120 129
40.721 -21.788 -93.3246 213 118 154
40.7021 -21.6233 -91.4114 254 217 202
40.2203 -22.0301 -88.8038 254 231 215
40.6608 -21.2995 -87.5944 187 205 210
40.1757 -21.712 -84.9961 196 192 202
40.1264 -21.4013 -81.2009 182 166 195
39.1712 -22.3976 -77.9284 239 214 218
39.6076 -21.6735 -76.7299 235 225 238
39.1128 -22.102 -74.1581 248 237 245
39.5482 -21.3799 -72.9627 234 238 245
39.5168 -21.2358 -71.0838 251 240 240
39.9515 -20.5146 -69.8899 227 200 216
39.4505 -20.9534 -67.3352 211 183 203
38.9473 -21.396 -64.7868 216 206 207
38.4417 -21.8423 -62.2445 209 195 192
38.8731 -21.1267 -61.06 207 191 199
38.8343 -20.9949 -59.2013 197 148 203
39.2651 -20.2803 -58.0184 207 185 214
38.7533 -20.7369 -55.4932 250 235 236
39.183 -20.0242 -54.3134 225 229 224
38.6678 -20.4865 -51.7976 247 232 229
39.0964 -19.7756 -50.6209 237 238 239
39.0513 -19.6542 -48.7793 235 234 235
38.5311 -20.1249 -46.2775 235 233 231
38.9095 -19.3011 -43.2733 238 235 240
38.3841 -19.7803 -40.7855 226 225 246
38.2805 -19.5599 -37.1397 226 220 235
38.7044 -18.8566 -35.9754 221 220 234
38.6504 -18.7502 -34.1587 184 187 224
37.1592 -20.4392 -30.3926 197 183 204
37.5217 -19.6417 -27.4319 209 209 214
37.9423 -18.944 -26.277 203 200 201
37.8205 -18.7537 -22.681 196 200 194
37.7579 -18.6614 -20.8876 212 201 196
38.3977 -17.0117 -13.2352 227 182 168
38.8149 -16.3196 -12.0896 190 1 69
39.2321 -15.6276 -10.944 235 10 28
41.5279 -12.4076 -10.5353 211 17 66
49.0122 -2.14998 -11.6009 226 183 178
55.9397 7.77242 -8.29975 229 224 219
42.9087 -21.8297 -98.511 221 180 184
41.9492 -22.6221 -93.268 190 45 114
41.9287 -22.4563 -91.3549 178 45 122
42.3703 -21.7239 -90.1424 208 57 116
41.8842 -22.1304 -87.538 177 73 137
42.3247 -21.3998 -86.3286 194 84 118
41.8353 -21.812 -83.7336 193 110 126
41.3436 -22.228 -81.1448 183 126 147
41.3157 -22.0744 -79.2519 220 159 168
40.8201 -22.4969 -76.674 237 183 183
41.2565 -21.7729 -75.4755 229 197 188
40.7575 -22.2011 -72.9069 232 213 207
41.1928 -21.479 -71.7115 236 218 214
41.1592 -21.3348 -69.8342 238 192 198
41.0887 -21.0521 -66.089 197 185 205
40.5812 -21.4944 -63.5437 225 193 202
40.031 -21.8076 -59.1462 237 200 200
40.4618 -21.093 -57.9632 183 149 204
40.8926 -20.3784 -56.7803 244 235 228
40.3765 -20.8348 -54.2584 183 202 220
39.8582 -21.2949 -51.7428 186 181 212
40.2868 -20.5841 -50.566 201 199 220
39.7167 -20.9302 -46.2229 203 188 208
40.1436 -20.2221 -45.0508 215 200 206
40.0936 -20.1052 -43.2187 201 208 209
39.9902 -19.8771 -39.5637 228 220 209
39.8822 -19.6565 -35.9211 235 226 227
39.8266 -19.549 -34.1045 223 221 224
39.2896 -20.0402 -31.6403 216 222 206
38.7503 -20.5351 -29.1822 217 218 197
39.1714 -19.8365 -28.0257 214 208 206
39.1107 -19.7375 -26.2231 202 195 203
39.9518 -18.3421 -23.9133 205 199 200
39.4052 -18.8493 -21.4754 202 199 203
39.8246 -18.1535 -20.3236 201 200 213
39.7593 -18.0619 -18.5335 198 199 205
39.2076 -18.5776 -16.1097 188 175 204
39.1395 -18.4908 -14.3273 188 193 210
39.9738 -17.1067 -12.0361 195 50 87
42.6916 -13.1979 -10.4816 204 20 59
43.5997 -11.8912 -9.95723 203 2 38
45.0683 -21.5406 -99.8613 254 220 209
44.5876 -21.9309 -97.2337 201 66 130
43.6195 -22.7228 -91.9973 191 8 55
43.5969 -22.5569 -90.0858 199 1 41
44.0384 -21.8244 -88.8733 204 1 61
43.5481 -22.2307 -86.2722 197 7 60
43.9885 -21.5001 -85.0628 196 12 70
43.4949 -21.912 -82.471 182 1 85
42.9989 -22.3277 -79.8855 193 1 71
42.9689 -22.1741 -77.9942 187 52 95
42.469 -22.5963 -75.4196 193 77 126
42.4021 -22.3003 -71.6558 191 44 170
42.8374 -21.5781 -70.4604 190 37 150
42.8017 -21.4338 -68.5847 190 53 135
43.2365 -20.7126 -67.3909 188 65 141
41.7826 -22.3104 -63.4884 187 76 160
41.701 -22.0387 -59.765 222 119 152
42.1324 -21.3232 -58.5805 181 119 160
42.0893 -21.1911 -56.7251 243 214 216
42.5201 -20.4765 -55.5421 229 215 221
41.9997 -20.9326 -53.0235 214 208 199
41.4771 -21.3925 -50.5112 214 202 207
41.9057 -20.6816 -49.3344 194 202 205
41.8569 -20.559 -47.4946 200 193 206
41.3292 -21.0274 -44.9962 192 188 208
41.2777 -20.9094 -43.1641 192 186 202
41.7039 -20.2023 -41.9936 171 182 188
41.5963 -19.9739 -38.3419 188 201 224
41.06 -20.4564 -35.8668 200 210 219
41.0028 -20.3478 -34.0503 178 182 211
41.4262 -19.6454 -32.8876 185 195 212
40.8849 -20.1363 -30.4266 203 196 206
40.3413 -20.631 -27.9718 183 187 192
40.7625 -19.9324 -26.8153 192 183 189
41.1837 -19.2338 -25.6588 189 184 203
41.5408 -18.4379 -22.7045 206 200 209
40.9898 -18.9448 -20.2699 197 192 203
41.3418 -18.1573 -17.3296 205 201 203
40.7858 -18.6727 -14.909 226 211 203
42.0391 -16.5937 -11.4676 206 1 67
42.8746 -15.2078 -9.17329 216 1 54
53.2803 -1.20245 -12.1786 173 1 59
55.1236 1.44833 -11.0644 154 92 136
55.5516 2.15824 -9.8892 230 206 209
55.9795 2.86815 -8.71404 243 240 242
46.3059 -22.3811 -99.8042 254 235 233
46.7514 -21.6421 -98.5808 189 110 160
45.7793 -22.4259 -93.3385 208 37 61
46.2226 -21.6906 -92.1213 201 42 81
45.7319 -22.0901 -89.5125 205 16 51
45.7066 -21.925 -87.6042 213 14 52
46.1482 -21.1925 -86.3917 184 16 72
45.6524 -21.6004 -83.797 190 1 79
45.1545 -22.0121 -81.2085 201 1 70
44.622 -22.2737 -76.7366 207 72 115
44.1178 -22.6957 -74.1652 209 115 139
44.5543 -21.9717 -72.9667 213 101 144
44.9908 -21.2477 -71.7682 217 82 129
44.482 -21.6773 -69.2093 211 117 115
44.9173 -20.9551 -68.0138 232 105 111
44.8789 -20.8116 -66.1414 216 112 136
43.849 -21.6914 -61.0577 204 86 136
44.2815 -20.974 -59.8701 190 47 123
43.762 -21.4214 -57.3408 202 171 168
44.1933 -20.7058 -56.1563 147 159 171
43.6229 -21.0305 -51.7887 171 168 164
43.5246 -20.7792 -48.1028 186 189 184
43.4737 -20.6564 -46.2646 207 197 201
42.9417 -21.1246 -43.7695 218 213 206
42.7772 -20.7759 -38.2874 218 217 204
43.2023 -20.0707 -37.12 228 210 206
42.6618 -20.5529 -34.6483 219 190 198
43.0858 -19.8496 -33.484 221 220 205
42.058 -20.933 -30.3725 221 208 199
42.4803 -20.2325 -29.2129 231 202 178
41.9324 -20.7269 -26.7614 226 188 179
42.3536 -20.0283 -25.6049 201 201 202
42.7747 -19.3297 -24.4484 203 195 214
42.7091 -19.2313 -22.6506 201 183 208
43.1297 -18.5336 -21.4957 206 188 201
43.5503 -17.8359 -20.3407 214 192 206
42.9939 -18.3445 -17.9125 188 194 214
41.9463 -19.4608 -14.8555 189 193 214
42.7818 -18.0748 -12.5612 194 162 176
43.6173 -16.6889 -10.2669 234 1 65
44.0351 -15.9959 -9.1198 210 1 66
50.2241 -7.80119 -11.9045 218 47 65
53.8304 -2.44041 -7.93541 238 216 201
56.7404 1.35087 -9.8344 249 239 214
57.1684 2.06078 -8.65923 230 227 214
47.5435 -23.2216 -99.7472 248 231 242
47.9891 -22.4826 -98.5238 235 179 204
47.501 -22.8705 -95.8996 209 24 90
47.9454 -22.1333 -94.6793 206 27 65
47.4539 -22.5268 -92.0645 219 42 109
47.8972 -21.7915 -90.8473 225 45 69
47.4023 -22.1908 -88.2418 231 47 30
47.3748 -22.0255 -86.3352 234 57 39
46.8759 -22.4313 -83.7406 222 81 69
46.3748 -22.8408 -81.1522 211 99 97
46.5214 -20.9106 -64.8918 197 53 137
45.0504 -22.5073 -61.0024 205 100 142
45.9154 -21.0725 -58.6271 191 128 131
45.775 -20.6727 -53.0659 170 152 159
45.2461 -21.1283 -50.5538 168 151 161
44.715 -21.5877 -48.048 125 124 166
44.6625 -21.4638 -46.2098 100 114 136
45.0905 -20.7539 -45.0346 164 156 167
44.9246 -20.3964 -39.5434 113 155 193
44.3833 -20.8727 -37.0656 120 118 177
44.8084 -20.1675 -35.8982 129 109 164
44.2636 -20.6495 -33.4297 131 137 160
43.6534 -21.0292 -29.1588 150 131 160
44.0757 -20.3286 -27.9992 122 134 164
43.5235 -20.8228 -25.5509 196 171 180
44.3658 -19.4256 -23.238 178 179 187
44.787 -18.7269 -22.0815 175 183 185
44.7187 -18.6294 -20.2869 204 205 210
45.1392 -17.9317 -19.132 207 204 216
44.088 -19.043 -16.072 208 205 212
43.5245 -19.5559 -13.6549 205 211 199
43.9423 -18.863 -12.5078 231 204 185
44.36 -18.17 -11.3606 207 11 103
45.1955 -16.784 -9.0663 209 1 60
54.5862 -3.94764 -9.04836 236 216 200
55.0114 -3.24243 -7.88097 239 231 232
50.6301 -21.6386 -100.572 245 225 235
49.6722 -22.584 -97.2433 210 146 172
49.1799 -22.9717 -94.6224 220 110 131
48.6852 -23.3631 -92.0078 224 103 146
49.1285 -22.6278 -90.7906 212 86 127
48.6304 -23.0248 -88.1852 204 67 105
48.6014 -22.8585 -86.2786 203 34 84
48.0993 -23.2622 -83.6842 202 32 104
47.5951 -23.6696 -81.096 205 16 119
47.0532 -23.9248 -76.6245 195 1 130
47.4908 -23.1989 -75.4229 204 1 103
46.9792 -23.6185 -72.8549 195 1 100
48.366 -21.7471 -73.0196 201 36 119
47.8521 -22.1705 -70.4579 185 36 91
48.2886 -21.4465 -69.2594 209 35 61
47.7712 -21.8755 -66.7069 210 57 54
47.2079 -22.1664 -62.2947 208 78 82
47.1168 -21.8884 -58.5717 211 76 84
46.5409 -22.2 -54.1937 225 195 159
46.9717 -21.4854 -53.0107 224 199 172
46.4397 -21.9389 -50.4988 224 210 183
45.9054 -22.3961 -47.9931 225 207 184
45.8513 -22.2712 -46.155 237 185 139
46.2793 -21.5613 -44.9798 201 174 167
45.7399 -22.027 -42.4881 229 201 201
46.1087 -21.2006 -39.4888 217 211 207
45.5642 -21.6747 -37.0112 219 197 183
46.4145 -20.2643 -34.6764 158 147 166
45.8654 -20.746 -32.2111 157 143 162
45.8017 -20.6371 -30.3995 162 153 180
45.2487 -21.1253 -27.9452 148 141 168
45.671 -20.4248 -26.7856 185 142 161
45.1146 -20.9187 -24.3405 146 158 186
45.5357 -20.2201 -23.184 128 146 179
45.9569 -19.5215 -22.0275 116 119 158
45.887 -19.4229 -20.233 135 142 164
46.3076 -18.7252 -19.0781 134 129 169
45.2516 -19.8332 -16.0184 116 138 169
46.5083 -17.7486 -12.5676 196 67 100
45.9383 -18.2651 -10.16 224 1 21
46.356 -17.5721 -9.0128 227 1 33
50.1684 -12.5352 -10.4626 207 23 50
53.4233 -7.99404 -9.47061 171 126 116
51.8725 -22.4824 -100.515 248 242 239
51.8498 -22.3018 -98.5867 248 228 230
51.3554 -22.6855 -95.9628 243 225 226
50.8587 -23.0729 -93.3452 248 234 220
50.3598 -23.464 -90.7338 243 220 210
49.3864 -24.4241 -87.4346 243 216 201
48.8824 -24.8237 -84.8372 245 233 190
48.3761 -25.2271 -82.246 239 216 191
48.8154 -24.4983 -81.0397 241 215 183
48.3057 -24.9074 -78.4579 240 215 183
50.0584 -22 -73.6452 218 135 157
50.0192 -21.8468 -71.762 227 103 118
49.9375 -21.5459 -68.005 219 2 89
49.4158 -21.9747 -65.4558 181 20 107
48.4124 -22.9845 -62.2391 179 20 116
48.3182 -22.7043 -58.5164 196 1 74
47.7881 -23.1472 -55.9906 193 1 63
48.2195 -22.4316 -54.8061 186 1 105
48.6508 -21.7161 -53.6216 169 1 106
48.5992 -21.5835 -51.7726 188 1 84
48.0629 -22.0367 -49.2639 185 1 94
47.5243 -22.4937 -46.7615 190 26 88
47.4681 -22.3686 -44.925 177 29 93
47.8961 -21.6587 -43.7499 195 16 96
48.324 -20.9488 -42.5747 197 67 112
47.7191 -21.2977 -38.2638 202 131 106
48.1453 -20.5906 -37.0933 212 156 136
47.5954 -21.0663 -34.622 218 180 145
48.0205 -20.3611 -33.4546 199 184 161
47.4672 -20.8426 -30.9926 223 200 184
47.4014 -20.7335 -29.1825 242 207 189
47.8248 -20.0311 -28.0198 238 209 197
46.7057 -21.0146 -23.1301 242 216 193
47.548 -19.6174 -20.8171 207 181 171
47.4759 -19.5187 -19.0242 209 184 178
47.253 -19.2338 -13.6642 189 188 188
48.1673 -17.9352 -13.1441 184 126 117
54.1761 -9.49524 -10.5791 167 113 130
49.5229 -25.734 -78.4018 246 230 230
49.4844 -25.5759 -76.5124 235 225 238
49.922 -24.85 -75.3108 249 232 234
50.3596 -24.1241 -74.1092 243 234 234
50.7972 -23.3982 -72.9076 251 238 227
51.6724 -21.9464 -70.5043 249 225 212
51.1499 -22.3693 -67.9491 254 247 207
50.6251 -22.7959 -65.4001 237 234 205
50.5793 -22.65 -63.531 254 223 201
50.0506 -23.0832 -60.9929 236 212 184
49.5196 -23.5202 -58.461 235 211 183
49.9521 -22.8028 -57.2733 221 193 169
49.4177 -23.2454 -54.7508 220 166 157
49.8491 -22.5299 -53.5663 209 135 130
49.7959 -22.3962 -51.7175 204 105 103
49.2564 -22.8473 -49.2089 196 89 102
48.7147 -23.3021 -46.7066 191 60 102
48.6569 -23.176 -44.8702 197 36 98
49.0849 -22.4661 -43.6951 192 34 79
48.9032 -22.1018 -38.2092 181 1 42
49.3294 -21.3947 -37.0387 193 1 55
48.7763 -21.8684 -34.5675 187 1 56
49.2015 -21.1631 -33.4001 193 1 62
48.645 -21.6425 -30.9383 187 1 71
49.069 -20.9391 -29.774 172 1 82
49.001 -20.8299 -27.9656 179 20 99
48.4394 -21.3176 -25.5178 189 22 95
49.284 -19.9166 -23.1986 179 53 97
48.7179 -20.4119 -20.7632 190 72 105
49.139 -19.7133 -19.6067 194 89 112
49.0649 -19.6144 -17.8154 183 101 123
48.4936 -20.1182 -15.394 193 114 148
48.9131 -19.4224 -14.2422 195 135 163
49.2544 -18.6343 -11.31 212 3 10
49.6733 -17.9394 -10.1598 232 11 24
50.5909 -16.6391 -9.63495 209 18 40
52.5083 -14.1243 -10.3548 157 1 44
51.5752 -24.9497 -74.0532 234 219 239
52.0127 -24.2238 -72.8515 248 224 236
52.4503 -23.4979 -71.6499 220 218 227
52.8879 -22.772 -70.4483 245 224 234
52.3623 -23.1927 -67.8932 239 229 234
52.7988 -22.4687 -66.6947 224 222 232
51.787 -23.4702 -63.4753 243 235 234
52.2218 -22.7491 -62.2815 243 235 237
51.6888 -23.182 -59.7466 229 232 243
51.1535 -23.6187 -57.218 236 235 240
51.0474 -23.3436 -53.5111 245 227 204
51.4787 -22.6281 -52.3266 251 233 209
51.4234 -22.4943 -50.4794 254 245 222
49.9051 -24.1106 -46.6517 245 246 223
49.8458 -23.9834 -44.8154 246 242 220
50.2737 -23.2734 -43.6403 242 228 203
50.7017 -22.5635 -42.4651 239 207 195
51.1296 -21.8536 -41.2899 236 192 175
50.5773 -22.3186 -38.808 213 174 159
50.5135 -22.1989 -36.9841 211 150 155
50.9398 -21.4918 -35.8136 213 141 121
51.366 -20.7847 -34.6431 210 113 96
50.8075 -21.26 -32.1783 205 86 100
50.2467 -21.739 -29.7197 199 74 77
50.6007 -20.9263 -26.7487 196 39 103
50.0348 -21.4138 -24.3041 189 11 85
49.8878 -21.2065 -20.7093 182 1 60
50.309 -20.5078 -19.5528 189 9 36
50.4977 -19.5179 -13.0367 197 1 29
50.418 -19.4245 -11.2564 193 1 17
50.8369 -18.7297 -10.1061 231 20 23
53.1773 -15.5241 -9.67705 146 18 64
54.1035 -23.5975 -70.3922 242 236 235
54.5411 -22.8716 -69.1906 243 237 230
53.6666 -20.6539 -39.5365 235 235 235
55.0808 -18.7666 -39.6602 246 240 221
54.5237 -19.2322 -37.1831 244 238 206
54.4582 -19.1114 -35.3593 249 229 213
52.4136 -21.3568 -30.9565 238 215 187
52.8387 -20.6516 -29.7891 231 210 188
52.2725 -21.1322 -27.3369 242 233 225
52.2003 -21.0228 -25.5317 239 214 205
51.0577 -22.001 -20.6553 212 191 172
50.981 -21.899 -18.8627 214 174 145
51.4016 -21.2014 -17.7077 215 155 140
50.824 -21.7008 -15.2866 192 124 126
51.2435 -21.005 -14.1348 222 93 106
51.5816 -20.2148 -11.2028 186 61 99
50.9979 -20.7246 -8.79882 184 40 93
51.4157 -20.0316 -7.65167 141 64 88
57.1336 -18.1517 -37.2455 222 225 223
53.7999 -21.1192 -24.3148 235 231 228
52.2276 -22.7955 -20.6014 244 238 232
52.5699 -21.9948 -17.6539 246 243 229
51.9892 -22.4922 -15.2329 249 241 229
52.4087 -21.7964 -14.0811 251 242 222
52.7453 -21.0051 -11.1491 244 229 205
53.1642 -20.3102 -9.99886 237 226 199
52.5761 -20.8197 -7.59818 242 233 212
54.506 -18.3173 -8.32199 244 228 222
53.9933 -21.8919 -12.8756 231 232 240
53.9089 -21.7953 -11.0955 236 236 239
54.3278 -21.1004 -9.94522 242 238 243
-58.5733 7.34014 -97.4442 198 179 171
-57.9916 4.6042 -97.1265 195 177 177
-56.9383 7.53715 -96.2145 150 147 159
-56.6313 8.32266 -95.0309 158 137 161
-59.3383 -1.81158 -62.9527 175 169 185
-59.0422 -1.05386 -61.811 195 170 168
-58.2759 0.0754571 -47.8338 184 175 165
-57.9826 0.825974 -46.703 171 157 171
-56.1037 3.49568 -11.1147 164 141 138
-55.3412 5.68432 -11.3243 172 144 148
-53.2346 11.5502 -9.50016 135 37 22
-52.1764 14.4955 -8.56952 79 1 1
-57.7742 0.616298 -93.4429 148 123 143
-59.9102 -6.09874 -84.2844 164 134 132
-59.6104 -5.33175 -83.1287 185 153 135
-59.1581 -4.40147 -78.2221 199 167 153
-59.0831 -4.3229 -76.3513 191 177 141
-58.3399 -2.64828 -70.3231 188 163 144
-58.6495 -3.89472 -65.1917 193 174 169
-58.3533 -3.137 -64.0499 184 173 157
-58.0572 -2.37928 -62.9082 179 156 156
-58.671 -4.40407 -58.9494 186 155 149
-58.082 -2.89686 -56.6784 180 170 141
-57.7875 -2.14325 -55.5429 181 161 134
-57.722 -2.08943 -53.7093 180 158 144
-57.8869 -2.73838 -51.1823 181 160 159
-57.5936 -1.98787 -50.0515 183 164 154
-57.3003 -1.23735 -48.9206 182 164 140
-57.3464 -1.8095 -42.773 183 173 157
-57.0547 -1.06311 -41.6483 179 167 148
-57.8675 -3.82437 -35.2945 177 149 131
-57.5782 -3.08415 -34.1791 182 157 150
-55.4383 1.4833 -13.2776 177 147 126
-55.1522 2.21529 -12.1747 174 140 105
-54.8661 2.94728 -11.0717 186 140 101
-54.294 4.41125 -8.86584 169 90 101
-53.5265 6.60246 -9.06905 151 56 61
-49.0359 19.1154 -5.98661 201 2 61
-48.455 20.602 -3.7466 227 189 175
-57.6536 -3.45868 -91.6538 129 105 134
-57.279 -3.90876 -69.5664 143 23 106
-57.6645 -5.22014 -66.2889 135 28 87
-58.2804 -7.2295 -62.3117 121 53 98
-57.332 -4.91099 -57.067 136 73 122
-56.9113 -4.0512 -52.2691 147 91 83
-57.0196 -4.65328 -47.9227 130 76 106
-56.2635 -2.5017 -48.1832 138 53 112
-56.4354 -3.15843 -45.6703 126 60 105
-56.9053 -5.11917 -36.3664 156 66 85
-56.616 -4.37895 -35.251 124 76 91
-57.5009 -7.18508 -30.7232 124 45 110
-57.2137 -6.45001 -29.6157 135 39 106
-56.3519 -4.24478 -26.2929 129 41 113
-56.0646 -3.50971 -25.1853 148 71 108
-55.7774 -2.77463 -24.0777 148 57 107
-55.447 -2.68772 -11.6883 122 86 95
-55.1626 -1.95985 -10.5916 110 41 87
-53.3425 3.13085 -9.92578 149 57 59
-47.7793 18.5585 -5.94295 206 1 68
-58.1455 -9.05941 -92.1735 174 121 139
-57.9162 -8.78199 -86.5056 186 81 112
-57.7674 -8.60737 -82.7425 182 103 96
-56.8706 -6.31259 -79.2848 182 79 108
-56.5001 -5.46754 -76.2615 179 88 90
-56.2015 -4.70364 -75.1105 178 91 117
-56.2901 -5.23958 -70.6681 181 89 104
-56.8421 -7.16779 -64.8236 186 99 69
-55.4639 -4.46583 -46.7526 181 84 106
-56.1254 -7.08666 -34.9518 173 101 89
-56.0731 -7.05596 -33.1556 179 96 109
-56.2582 -7.7358 -30.6801 186 96 74
-55.0698 -5.41665 -14.9357 183 92 77
-55.5084 -6.84822 -11.843 165 82 87
-55.2251 -6.12344 -10.7509 174 102 91
-54.7001 -4.67679 -10.321 174 87 91
-53.6476 -1.77731 -9.45205 175 103 102
-51.2468 4.77839 -6.57395 221 31 43
-50.2257 7.70075 -7.42055 216 12 47
-47.5968 15.0465 -6.85199 198 1 31
-46.5226 18.0016 -5.89928 212 1 61
-46.2321 18.7449 -4.77927 210 2 51
-56.0917 -7.51669 -92.4319 171 40 82
-55.8665 -7.23391 -86.7596 176 45 89
-56.1752 -8.41554 -81.545 180 27 93
-55.8763 -7.6506 -80.3924 186 54 101
-55.5774 -6.88568 -79.2399 177 36 102
-55.2086 -6.03986 -76.2167 167 67 105
-55.3755 -7.54382 -59.2465 169 29 67
-55.5468 -8.17785 -56.7044 176 17 77
-55.3686 -8.01553 -51.2135 185 20 36
-54.325 -5.63868 -42.3859 191 5 73
-54.8774 -7.6397 -34.9084 168 17 61
-55.0154 -8.28653 -30.6369 185 29 64
-54.7282 -7.55146 -29.5293 169 33 67
-54.1063 -6.05807 -25.5304 177 19 52
-54.0141 -6.01781 -21.9721 190 26 61
-54.6926 -8.14557 -18.1832 180 34 61
-54.4081 -7.4177 -17.0864 180 30 67
-54.6076 -8.12381 -14.6529 177 9 78
-54.0403 -6.67219 -12.4657 178 17 83
-52.9057 -3.76896 -8.09113 171 101 111
-52.1326 -1.59476 -8.31255 171 24 81
-44.7258 18.9245 -5.37452 216 12 67
-55.3228 -9.93126 -86.4155 214 12 45
-55.0231 -9.16427 -85.2598 212 31 52
-54.882 -8.98864 -81.5001 205 3 73
-54.5831 -8.2237 -80.3475 206 29 57
-54.5141 -8.13998 -78.4738 201 1 45
-54.7746 -9.26981 -71.4386 205 26 88
-54.4781 -8.51106 -70.2953 225 13 44
-54.5823 -9.05576 -65.8735 199 26 49
-54.6914 -9.61281 -61.4702 203 48 60
-54.3973 -8.86023 -60.3362 187 35 95
-54.5712 -9.49067 -57.7911 216 1 90
-54.2779 -8.74015 -56.6603 208 14 96
-54.397 -9.32294 -52.2958 206 3 84
-54.521 -9.91803 -47.95 192 8 90
-53.3046 -6.89814 -41.6521 206 2 69
-53.5806 -8.16049 -33.069 202 7 55
-53.3487 -8.03019 -24.135 200 1 31
-53.504 -8.70564 -19.9101 197 1 22
-53.0968 -7.94178 -13.5167 194 5 56
-52.208 -5.7599 -8.48154 193 42 82
-51.9247 -5.03513 -7.38946 223 107 105
-51.395 -3.58693 -6.95485 210 1 52
-47.7402 6.59931 -7.33418 201 4 49
-55.5417 -10.2133 -92.083 214 19 93
-54.4682 -11.4625 -91.3044 221 8 61
-54.1677 -10.6934 -90.1456 231 6 74
-54.0261 -10.5059 -86.3705 211 8 35
-53.7263 -9.73891 -85.2148 213 1 52
-53.8877 -10.3266 -82.6077 212 10 58
-53.5888 -9.56173 -81.4551 215 1 56
-53.2898 -8.79679 -80.3026 223 9 43
-53.2226 -8.7123 -78.429 215 3 15
-53.6206 -9.99286 -75.1195 213 2 29
-53.3232 -9.23204 -73.9731 193 1 68
-53.4918 -9.83828 -71.3941 205 5 66
-53.4286 -9.76409 -69.536 210 2 27
-53.1325 -9.00636 -68.3942 212 1 8
-53.3047 -9.62191 -65.8291 211 9 29
-53.419 -10.1766 -61.426 205 40 107
-53.1334 -9.88292 -52.2519 216 116 128
-53.0787 -9.83035 -50.4264 222 111 137
-52.3384 -8.19835 -42.7285 240 111 96
-52.6225 -9.44989 -34.1364 198 2 42
-52.2314 -9.23622 -18.0977 197 1 26
-52.1534 -9.21137 -14.5677 204 2 17
-44.1269 12.6391 -7.83825 201 1 77
-53.4686 -12.8077 -92.418 212 1 101
-53.168 -12.0386 -91.2592 214 2 52
-52.567 -10.5005 -88.9416 211 1 78
-52.7294 -11.0805 -86.3254 202 1 70
-52.8934 -11.6647 -83.7154 201 1 90
-52.5282 -10.8124 -80.6861 195 1 92
-51.9966 -9.36989 -80.2576 193 1 95
-51.9311 -9.28463 -78.3841 201 1 74
-52.3343 -10.5629 -75.0748 198 1 73
-51.8515 -9.57405 -68.3497 197 1 65
-52.499 -11.5598 -64.3614 197 1 73
-52.3268 -11.3658 -58.8338 185 77 146
-51.8168 -10.3896 -50.3825 191 81 141
-52.0041 -11.0334 -47.8625 204 90 167
-51.3722 -9.49855 -43.8048 193 89 136
-51.564 -10.1537 -41.3018 196 19 107
-50.9373 -8.6323 -37.2643 179 1 63
-50.957 -9.17601 -27.6131 190 1 108
-42.3673 13.5441 -9.08462 214 23 92
-40.7326 17.9736 -7.64546 216 8 37
-40.441 18.72 -6.5208 213 1 65
-51.8678 -12.6148 -91.214 213 1 80
-51.5673 -11.8458 -90.0552 245 179 159
-51.2668 -11.0767 -88.8964 238 204 189
-51.1329 -10.8882 -85.1247 239 185 180
-51.3012 -11.4728 -82.5178 234 191 178
-51.048 -11.1329 -75.0301 236 203 161
-50.7507 -10.3721 -73.8837 240 208 177
-50.9262 -10.9752 -71.3049 239 214 159
-50.5704 -10.1417 -68.3052 229 195 184
-51.2249 -12.1244 -64.3171 229 202 171
-50.9304 -11.3707 -63.1816 230 202 168
-50.4181 -10.3678 -54.6949 216 121 173
-50.7457 -11.591 -47.8188 213 167 187
-50.406 -10.7988 -44.8811 211 189 188
-50.2644 -10.6673 -39.4515 203 168 180
-49.9751 -9.9271 -38.3361 233 195 178
-49.8855 -9.85185 -34.735 225 196 180
-50.0444 -10.4894 -30.4641 227 189 172
-49.7571 -9.75435 -29.3565 214 187 168
-49.4291 -8.99193 -26.4639 229 187 190
-49.636 -9.67543 -24.006 231 187 188
-49.7703 -10.3269 -18.0121 226 194 178
-44.2992 4.21205 -8.31222 226 147 161
-40.2739 15.2052 -7.44272 190 3 53
-50.5676 -13.191 -91.1688 197 1 92
-49.732 -10.9809 -89.5814 244 241 251
-50.1359 -12.2298 -86.2353 254 248 250
-49.8362 -11.4628 -85.0796 244 242 244
-50.008 -12.0459 -82.4729 242 237 232
-49.6467 -11.1932 -79.4454 242 238 242
-49.7617 -11.7029 -74.9854 189 196 212
-49.94 -12.3024 -72.4036 194 204 222
-49.2894 -10.7094 -68.2607 210 218 232
-49.9508 -12.689 -64.2728 199 208 221
-49.8961 -12.6207 -62.4273 192 189 217
-49.7891 -12.4904 -58.7456 198 183 214
-49.4438 -11.6788 -55.7801 210 165 181
-49.293 -11.508 -50.2948 248 231 227
-49.1964 -11.4044 -46.6535 245 226 224
-48.926 -11.1431 -35.8039 229 223 226
-47.9012 -8.80784 -25.3147 236 228 217
-48.1125 -9.49185 -22.8601 194 187 202
-48.5747 -10.89 -19.7389 175 171 191
-48.5397 -10.8722 -17.9694 180 181 195
-47.4019 -7.96073 -13.5824 178 162 203
-47.1175 -7.23286 -12.4857 201 190 206
-43.5983 2.20284 -8.72406 217 35 45
-43.0564 3.66133 -8.26904 219 121 105
-41.4258 8.04918 -6.88536 233 131 125
-38.4337 16.1362 -5.15587 207 6 77
-49.032 -13.0981 -91.8568 203 1 103
-48.4301 -11.5579 -89.5361 216 211 235
-48.3658 -11.46 -87.6473 210 204 227
-48.5395 -12.0375 -85.0345 216 205 229
-48.7148 -12.619 -82.428 219 208 223
-48.4158 -11.8541 -81.2754 230 225 230
-48.5341 -12.3563 -76.8079 226 218 223
-48.1782 -11.5121 -73.7943 214 203 217
-48.3607 -12.1121 -71.2157 217 211 221
-48.6237 -13.1846 -62.3831 215 206 208
-48.3296 -12.432 -61.2491 228 219 225
-48.5202 -13.0527 -58.7015 231 213 214
-48.2269 -12.3021 -57.5707 197 208 209
-47.9336 -11.5516 -56.4398 218 174 190
-48.0311 -12.0672 -50.251 208 211 221
-47.938 -11.962 -46.6098 173 170 175
-47.6471 -11.2177 -45.4882 180 170 182
-47.8044 -11.8198 -41.1712 197 191 199
-47.678 -11.6961 -35.7605 205 203 203
-47.3896 -10.9579 -34.6482 190 187 201
-47.2716 -10.8558 -29.2702 205 207 229
-46.6971 -9.38565 -27.055 183 185 186
-47.161 -10.7722 -23.92 193 189 185
-46.8749 -10.0403 -22.8171 161 170 189
-47.3424 -11.4361 -19.696 178 161 179
-47.0576 -10.7072 -18.5977 185 177 172
-46.7402 -9.96179 -15.7331 185 188 183
-37.1753 15.5785 -5.11214 209 6 53
-36.8844 16.3229 -3.99058 214 7 75
-36.5935 17.0672 -2.86903 160 35 61
-48.031 -14.4451 -92.9719 181 112 159
-47.73 -13.675 -91.8116 198 1 107
-47.4215 -13.1921 -82.383 216 201 219
-47.0637 -12.3378 -79.3556 193 199 223
-46.9484 -12.1653 -75.6152 218 209 216
-46.8919 -12.0821 -73.7496 192 198 218
-47.1081 -13.0646 -63.0488 164 162 191
-47.0573 -12.9958 -61.2049 143 165 204
-46.7632 -12.2433 -60.0709 161 150 199
-46.958 -12.8644 -57.5266 170 147 203
-46.6647 -12.1139 -56.3957 199 145 195
-46.3714 -11.3634 -55.2649 206 135 207
-46.5231 -11.9354 -50.9061 219 213 220
-46.3887 -11.7754 -45.4445 140 123 172
-46.2615 -11.6339 -40.0107 166 172 182
-45.8531 -10.7728 -33.4926 147 150 173
-45.8151 -10.737 -31.6984 110 129 188
-45.5271 -9.99983 -30.5877 169 173 210
-45.4544 -9.93637 -27.0118 151 162 164
-45.4192 -9.90774 -25.2285 147 138 164
-45.6374 -10.5887 -22.7741 156 138 179
-45.6042 -10.5652 -20.9985 177 160 176
-45.8252 -11.2533 -18.5549 183 177 168
-45.5097 -10.5071 -15.6904 185 183 178
-45.2252 -9.77925 -14.5936 173 160 181
-44.6563 -8.32351 -12.4002 162 156 175
-44.8834 -9.02705 -9.97991 146 135 160
-41.1163 1.10293 -8.63781 209 20 85
-40.5709 2.55988 -8.18267 214 157 146
-35.9169 15.0209 -5.06841 216 15 44
-35.626 15.7652 -3.94686 209 34 58
-35.3351 16.5096 -2.8253 184 50 60
-45.8262 -12.7118 -89.4457 254 230 236
-45.9461 -13.1867 -84.9444 205 187 214
-46.1283 -13.7652 -82.3381 203 197 221
-45.8294 -13.0003 -81.1855 213 201 216
-45.7722 -12.9101 -79.3107 197 197 215
-45.1752 -11.3823 -77.0087 181 194 212
-45.7951 -13.2491 -71.1266 200 197 209
-45.4986 -12.4903 -69.9833 209 206 216
-46.1285 -14.3828 -64.14 196 181 203
-45.834 -13.6292 -63.0045 208 206 209
-45.7849 -13.5597 -61.1607 205 197 206
-45.4908 -12.8071 -60.0267 194 186 196
-45.6892 -13.4267 -57.4825 216 196 201
-45.2594 -12.4954 -50.8622 229 227 232
-44.9673 -11.7479 -49.736 233 227 220
-44.9239 -11.6928 -47.914 229 219 216
-45.1302 -12.333 -45.4007 230 218 217
-45.0083 -12.1892 -39.9672 228 227 219
-44.7186 -11.448 -38.8503 238 209 216
-44.8936 -12.064 -34.5615 139 134 165
-44.6051 -11.3258 -33.4493 180 171 172
-44.3167 -10.5877 -32.337 154 153 171
-44.2808 -10.5521 -30.5444 174 170 191
-43.9928 -9.81496 -29.4337 183 180 187
-44.2116 -10.4871 -26.9686 134 145 169
-44.1138 -10.4051 -21.6281 180 184 178
-44.0828 -10.3819 -19.8542 198 184 180
-44.3081 -11.0705 -17.4138 178 162 174
-44.2791 -11.0524 -15.6476 127 151 172
-43.4258 -8.86883 -12.3574 164 159 175
-43.3726 -8.84502 -8.84363 211 165 149
-34.6585 14.4632 -5.02468 204 15 58
-34.3676 15.2075 -3.90313 204 42 49
-34.0767 15.9519 -2.78157 201 51 52
-44.0412 -11.951 -90.8602 241 225 224
-44.2233 -12.5187 -88.2401 233 207 208
-44.1647 -12.4195 -86.3529 216 214 198
-44.0499 -12.2274 -82.588 223 206 205
-43.9383 -12.0435 -78.8354 236 227 222
-43.8837 -11.9547 -76.9638 238 195 206
-44.5123 -13.8175 -71.082 234 220 213
-44.2158 -13.0588 -69.9387 232 219 223
-43.9193 -12.3 -68.7955 231 218 222
-44.3618 -13.585 -65.5183 206 199 213
-44.5599 -14.1938 -62.9602 226 205 214
-44.2654 -13.4402 -61.8247 223 211 214
-44.2185 -13.3709 -59.9825 219 206 204
-43.9244 -12.6184 -58.8486 217 198 203
-44.127 -13.2385 -56.3075 220 198 193
-43.8337 -12.488 -55.1767 199 142 181
-43.2471 -10.987 -52.9149 225 224 235
-43.2038 -10.9269 -51.0868 227 227 233
-43.4116 -11.5605 -48.5659 223 223 236
-43.3703 -11.5056 -46.7454 227 228 236
-43.5809 -12.1463 -44.2355 225 215 221
-43.5416 -12.0966 -42.4228 216 213 222
-43.4654 -12.0034 -38.8067 229 223 229
-43.4285 -11.9598 -37.0033 203 196 216
-43.1392 -11.2196 -35.888 197 181 193
-43.3571 -11.8789 -33.4059 209 182 181
-43.0687 -11.1407 -32.2936 157 159 161
-43.0346 -11.1044 -30.5011 169 156 164
-42.9688 -11.0378 -26.9254 157 158 160
-42.9372 -11.0076 -25.1422 158 148 161
-42.8763 -10.9535 -21.5851 185 178 181
-36.4339 5.83702 -6.71189 212 50 55
-35.6181 8.0262 -6.88884 223 96 89
-33.4 13.9055 -4.98095 206 8 82
-33.1091 14.6499 -3.8594 217 10 74
-32.8183 15.3942 -2.73784 207 34 62
-44.6447 -13.4953 -93.1871 193 1 66
-43.3393 -14.0737 -93.1418 211 38 106
-42.5519 -11.9675 -93.4411 216 32 120
-42.7358 -12.5295 -90.8149 247 199 215
-42.6205 -12.3255 -87.0345 209 205 220
-42.564 -12.2266 -85.149 217 205 224
-42.7532 -12.802 -82.5429 187 200 214
-42.3461 -11.8517 -77.6379 195 197 216
-42.2936 -11.7631 -75.7679 196 202 220
-42.4889 -12.3539 -73.1851 185 197 214
-42.1912 -11.5921 -72.0371 206 204 217
-42.7889 -13.3955 -64.3353 197 196 219
-42.6968 -13.2512 -60.6449 206 195 209
-42.6521 -13.1822 -58.8043 186 191 205
-42.3579 -12.4296 -57.6704 196 202 204
-42.0638 -11.677 -56.5364 214 133 198
-42.2715 -12.2998 -54.0017 226 209 211
-42.148 -12.1205 -48.522 217 222 236
-42.1084 -12.0648 -46.7016 222 220 226
-42.3225 -12.704 -44.1917 219 215 218
-42.0316 -11.9597 -43.0702 220 215 218
-41.9945 -11.9102 -41.2591 229 220 222
-41.6329 -11.0762 -36.5294 223 219 227
-41.5985 -11.0339 -34.7292 247 222 211
-41.3092 -10.2937 -33.6138 153 182 187
-41.02 -9.55348 -32.4984 130 151 182
-41.2438 -10.2174 -30.0258 217 204 202
-40.9553 -9.47927 -28.9135 138 163 182
-40.6668 -8.74111 -27.8013 130 125 172
-41.3527 -10.7699 -20.4392 162 172 189
-41.0399 -10.0152 -17.5655 155 142 173
-40.7542 -9.28428 -16.4641 163 170 192
-40.3957 -8.50375 -10.0784 185 159 169
-40.1113 -7.77588 -8.98167 201 46 81
-33.8116 8.93758 -6.37296 210 1 71
-32.4325 12.6035 -6.05878 204 5 92
-31.3159 15.5519 -5.08919 209 30 63
-31.0243 16.2983 -3.96453 209 47 52
-30.7326 17.0447 -2.83987 73 1 9
-41.243 -12.5475 -93.3956 196 2 134
-40.9404 -11.7733 -92.2291 252 203 211
-41.1287 -12.3358 -89.6061 198 207 222
-41.0176 -12.1324 -85.8289 215 209 212
-41.1567 -12.6097 -81.3422 196 198 214
-41.3518 -13.1897 -78.7455 197 198 207
-41.0022 -12.3354 -75.723 221 211 212
-40.7036 -11.5715 -74.572 222 210 200
-41.5113 -13.9616 -64.2909 222 205 213
-41.216 -13.2059 -63.1523 225 211 221
-41.4228 -13.8158 -60.6006 209 213 224
-41.1283 -13.0622 -59.4651 203 204 211
-41.0856 -12.9934 -57.6262 228 202 210
-40.6695 -12.05 -50.9987 231 225 228
-40.5548 -11.8776 -45.5331 224 221 234
-40.7732 -12.5173 -43.0264 222 218 229
-40.4473 -11.7238 -40.0954 221 218 229
-40.1568 -10.9805 -38.9754 226 214 233
-40.09 -10.8903 -35.3689 220 215 219
-40.0578 -10.8483 -33.5703 217 205 208
-39.7685 -10.1081 -32.455 228 215 215
-39.4792 -9.36784 -31.3396 233 228 220
-39.7073 -10.0323 -28.8702 234 218 209
-39.6779 -9.9975 -27.0824 220 201 199
-39.5946 -9.90542 -21.7379 231 217 200
-39.543 -9.85437 -18.1903 227 214 204
-39.5185 -9.83192 -16.4212 241 228 198
-39.2328 -9.10096 -15.3198 231 211 193
-39.4496 -9.77695 -11.1324 224 207 201
-39.1651 -9.04908 -10.0357 222 199 193
-29.7624 15.7391 -3.92068 217 54 45
-29.4707 16.4855 -2.79602 107 1 11
-39.6315 -12.3534 -92.1836 254 192 164
-39.8232 -12.9143 -89.5607 223 220 217
-39.5215 -12.1422 -88.3973 238 211 205
-39.86 -13.1843 -81.2971 204 207 216
-40.0586 -13.7628 -78.7006 221 210 205
-39.7596 -12.9979 -77.548 226 211 203
-39.1136 -11.3799 -73.3761 212 208 208
-39.3174 -11.9718 -70.7997 207 195 212
-39.7744 -13.2467 -67.5185 204 192 200
-39.8542 -13.6268 -59.4208 207 201 218
-39.5597 -12.8732 -58.2853 212 205 217
-39.2251 -12.0521 -55.314 219 170 194
-39.4405 -12.6738 -52.7827 235 225 225
-39.1472 -11.9233 -51.6518 238 228 232
-39.1095 -11.862 -49.8254 224 220 218
-39.2929 -12.4368 -45.4892 232 227 230
-39.5148 -13.075 -42.9827 229 215 222
-39.2239 -12.3307 -41.8612 221 217 222
-38.9001 -11.5374 -38.9318 223 219 230
-38.5471 -10.7044 -34.2085 179 191 209
-39.0363 -12.0617 -31.0513 173 197 210
-38.7478 -11.3235 -29.939 169 181 210
-38.4593 -10.5853 -28.8268 211 205 211
-38.4317 -10.5498 -27.0391 180 192 209
-38.3788 -10.4848 -23.4731 174 190 194
-38.3535 -10.4554 -21.6947 186 193 205
-38.3055 -10.4028 -18.1473 178 183 222
-38.0194 -9.6708 -17.0443 177 195 210
-38.2394 -10.3393 -12.8494 170 182 198
-37.6697 -8.88153 -10.6528 189 188 202
-32.69 4.17791 -6.5818 198 1 97
-31.8638 6.36245 -6.75837 239 125 137
-31.3052 7.82688 -6.28586 203 61 76
-27.6866 17.368 -5.78213 213 61 48
-27.3937 18.1175 -4.65282 137 29 37
-39.6877 -12.462 -94.0814 196 1 77
-38.3771 -13.0429 -94.0359 200 6 90
-38.3226 -12.9334 -92.1381 239 168 141
-38.0201 -12.1592 -90.9715 221 222 231
-37.7175 -11.385 -89.805 196 198 220
-37.9143 -11.9485 -87.1885 220 211 215
-38.3629 -13.1861 -83.8546 197 205 223
-38.5633 -13.7589 -81.2521 206 211 227
-38.7653 -14.3359 -78.6557 200 192 226
-38.4664 -13.571 -77.5031 189 192 227
-38.1206 -12.7161 -74.4822 187 215 221
-38.3271 -13.3044 -71.9029 217 210 218
-38.0294 -12.5426 -70.7549 194 204 224
-38.4916 -13.8151 -67.4739 186 185 212
-38.4488 -13.7355 -65.6211 216 204 201
-38.1527 -12.9778 -64.4794 197 205 205
-38.3656 -13.5826 -61.9249 199 208 209
-38.5801 -14.1914 -59.3766 180 186 212
-38.2468 -13.3685 -56.4038 222 206 190
-37.8783 -12.4856 -51.6077 200 201 213
-38.0649 -13.053 -47.264 202 201 199
-38.031 -12.996 -45.4454 203 198 200
-37.6746 -12.144 -40.6959 213 202 220
-37.3837 -11.3997 -39.5743 203 205 226
-37.353 -11.351 -37.7681 203 206 215
-36.8019 -9.91098 -37.3312 208 205 199
-37.2939 -11.2598 -34.1649 204 199 195
-37.2113 -11.1384 -28.7834 199 199 197
-36.8974 -10.3649 -25.8851 207 192 200
-37.136 -11.0355 -23.4299 205 208 199
-36.8257 -10.2713 -20.5456 210 183 197
-36.4958 -9.48722 -15.8984 199 191 198
-36.4756 -9.46528 -14.1325 202 184 193
-36.7223 -10.1565 -11.7083 204 204 198
-31.442 3.62487 -6.53843 199 11 94
-27.2982 14.558 -9.12603 206 1 74
-26.7124 16.057 -6.86741 206 14 29
-26.1266 17.556 -4.60878 164 31 71
-25.8337 18.3055 -3.47947 2 2 35
-37.0665 -13.6237 -93.9903 205 21 90
-36.7635 -12.8484 -92.8222 210 105 135
-36.7112 -12.7392 -90.9261 235 231 228
-36.4086 -11.965 -89.7595 232 211 218
-36.6089 -12.527 -87.1431 221 214 213
-37.2666 -14.3336 -81.207 226 205 218
-37.4721 -14.909 -78.6107 222 227 211
-37.1732 -14.144 -77.4581 213 227 207
-36.8292 -13.2885 -74.4373 221 217 208
-36.2321 -11.7607 -72.1353 209 210 225
-37.2088 -14.3836 -67.4293 227 208 211
-36.9123 -13.6249 -66.286 219 200 202
-36.5755 -12.7878 -63.2932 229 222 198
-36.7927 -13.3931 -60.7418 214 191 198
-36.717 -13.2488 -57.0613 228 210 174
-36.6804 -13.1798 -55.2256 209 146 177
-36.4774 -12.8089 -44.2769 180 166 202
-35.894 -11.3161 -42.0276 187 180 210
-35.6749 -10.9533 -27.6278 205 192 186
-35.6511 -10.9172 -25.8418 195 181 196
-35.3631 -10.18 -24.7311 191 183 220
-35.606 -10.8512 -22.2791 180 172 208
-35.5846 -10.8212 -20.5024 187 172 186
-35.2978 -10.0872 -19.3964 194 195 202
-35.0109 -9.35314 -18.2903 197 202 217
-35.2583 -10.0356 -15.8554 192 189 195
-34.3828 -7.82005 -10.7854 211 184 175
-28.2533 8.16153 -7.48426 218 103 142
-26.3239 13.247 -10.2113 207 7 98
-25.4453 15.4955 -6.82338 207 10 52
-25.1524 16.245 -5.69406 207 19 85
-24.8595 16.9944 -4.56475 188 39 74
-24.5666 17.7439 -3.43544 12 4 37
-35.4529 -13.4292 -92.7767 221 43 96
-35.1499 -12.654 -91.6086 254 226 214
-35.0997 -12.5451 -89.7141 220 217 223
-35.3035 -13.1055 -87.0977 214 204 217
-35.7625 -14.3385 -83.7643 213 209 220
-35.6701 -14.1412 -80.0063 185 174 194
-35.8799 -14.7171 -77.4132 162 184 190
-35.581 -13.9522 -76.2606 148 146 196
-34.9406 -12.333 -72.0904 199 210 223
-35.926 -14.9521 -67.3847 198 195 212
-35.6295 -14.1933 -66.2415 201 194 228
-35.2944 -13.3555 -63.2486 201 199 205
-35.7374 -14.567 -58.1525 187 188 206
-35.7021 -14.4962 -56.3153 225 193 192
-35.1139 -12.9911 -54.0474 215 196 194
-34.9535 -12.6781 -44.9238 185 189 205
-34.6614 -11.9307 -43.7976 192 177 198
-34.6321 -11.8753 -41.9837 189 181 200
-34.3404 -11.1289 -40.859 190 183 200
-34.576 -11.7706 -38.3653 182 178 199
-34.7627 -12.3264 -32.281 186 182 159
-34.4734 -11.5862 -31.1657 187 191 181
-34.7154 -12.2445 -28.6967 178 173 196
-34.4269 -11.5063 -27.5844 173 182 171
-34.1385 -10.7681 -26.4722 211 199 185
-34.1168 -10.7323 -24.6878 219 214 229
-33.8288 -9.99517 -23.5771 204 189 218
-33.7699 -9.9031 -18.2472 207 205 212
-33.4831 -9.16905 -17.1412 204 202 205
-33.7347 -9.85206 -14.7094 201 200 202
-24.7639 13.435 -9.03797 205 1 78
-23.8852 15.6834 -5.65003 206 30 70
-23.5923 16.4329 -4.52072 201 35 51
-23.2995 17.1824 -3.39141 41 16 20
-23.562 16.4716 -1.00155 34 24 32
-33.8393 -13.2348 -91.563 249 222 207
-34.3734 -14.7158 -79.9612 220 209 204
-34.2878 -14.5253 -76.2157 227 207 217
-33.6491 -12.9053 -72.0455 214 203 198
-34.6432 -15.5205 -67.3402 181 193 192
-34.3467 -14.7618 -66.1969 218 207 216
-34.3095 -14.6809 -64.3458 209 207 225
-34.2376 -14.5254 -60.6531 211 203 209
-34.1688 -14.378 -56.9727 227 208 213
-34.1357 -14.3075 -55.1372 222 143 200
-33.8416 -13.5549 -54.0032 223 204 192
-34.0717 -14.1725 -51.4754 196 191 199
-33.7784 -13.422 -50.3446 201 193 201
-33.4552 -12.6091 -47.3906 225 210 213
-33.6898 -13.2381 -44.8799 218 196 207
-33.3702 -12.4345 -41.9399 197 180 198
-33.2446 -12.1846 -32.9174 209 193 164
-32.6434 -10.6603 -28.8915 209 188 192
-32.8905 -11.3212 -26.4288 203 192 193
-32.602 -10.583 -25.3166 220 205 208
-32.5825 -10.5474 -23.5338 203 197 204
-32.8332 -11.2175 -21.0852 213 198 202
-32.8158 -11.1871 -19.3101 207 206 209
-32.242 -9.71901 -17.098 204 186 212
-31.9251 -8.9365 -12.4605 199 193 181
-31.9112 -8.91533 -10.6995 208 185 159
-29.6603 -3.11261 -7.14365 213 1 43
-29.0988 -1.66156 -6.68641 222 54 50
-22.911 14.3724 -6.73531 201 10 49
-22.6181 15.1219 -5.606 210 36 58
-22.3252 15.8714 -4.47669 207 50 34
-22.0323 16.6209 -3.34737 59 1 9
-22.2983 15.9116 -0.957636 27 8 18
-32.8316 -14.5908 -92.6856 195 1 124
-32.5286 -13.8156 -91.5175 249 207 212
-32.1794 -12.9309 -88.4565 234 224 229
-32.905 -14.824 -84.3971 217 221 230
-32.777 -14.5235 -78.7605 223 214 217
-32.9945 -15.0984 -76.1707 217 222 222
-32.3576 -13.4776 -72.0006 216 201 203
-32.5796 -14.0639 -69.428 207 200 207
-33.0639 -15.3302 -66.1523 217 209 205
-33.0285 -15.2486 -64.3013 217 227 218
-32.7323 -14.4909 -63.1596 219 205 220
-32.96 -15.0915 -60.6087 220 195 212
-32.6647 -14.3359 -59.47 209 196 211
-32.8947 -14.9426 -56.9284 221 208 215
-32.8633 -14.8713 -55.0929 204 158 175
-32.5692 -14.1187 -53.959 218 210 165
-32.8029 -14.7348 -51.4313 174 184 199
-32.2163 -13.2338 -49.1696 185 181 210
-32.0591 -12.886 -38.2778 149 162 195
-31.7453 -12.0919 -35.3534 194 204 216
-31.4548 -11.3486 -34.2334 168 184 216
-31.9705 -12.6953 -31.0787 166 181 206
-31.6812 -11.9551 -29.9633 162 185 214
-31.3919 -11.2149 -28.848 189 191 224
-31.1026 -10.4747 -27.7326 187 176 205
-31.354 -11.136 -25.2732 182 188 199
-31.5905 -11.7683 -21.042 182 180 194
-31.001 -10.269 -17.0549 205 197 218
-31.2596 -10.9489 -14.6234 184 194 217
-30.6875 -9.48491 -12.4175 182 181 205
-21.6439 13.8109 -6.69128 205 8 37
-21.351 14.5604 -5.56197 219 1 48
-21.0581 15.3099 -4.43266 226 62 33
-20.7652 16.0594 -3.30334 80 1 13
-20.4723 16.8088 -2.17403 35 12 10
-30.7028 -13.0705 -92.9276 226 167 166
-30.9151 -13.6212 -90.3038 250 237 251
-30.6121 -12.846 -89.1357 244 245 250
-30.5679 -12.7368 -87.2445 234 235 247
-31.2608 -14.5289 -81.3112 161 174 221
-31.4802 -15.0981 -78.7154 173 184 223
-31.1805 -14.3311 -77.5597 158 161 221
-31.4024 -14.9066 -74.9732 157 162 201
-31.1035 -14.1416 -73.8206 148 170 199
-31.0661 -14.0499 -71.9558 215 216 223
-31.2916 -14.6346 -69.3832 185 200 231
-31.7811 -15.8987 -66.1077 187 196 218
-31.4846 -15.14 -64.9645 194 203 221
-31.4513 -15.0586 -63.1151 198 210 218
-31.1552 -14.3008 -61.9734 185 182 208
-31.3871 -14.902 -59.4256 189 176 206
-31.6206 -15.5072 -56.8842 198 200 207
-31.591 -15.4352 -55.0487 218 171 168
-31.2969 -14.6826 -53.9148 226 189 158
-31.534 -15.2971 -51.3872 185 181 185
-31.2407 -14.5466 -50.2564 191 179 180
-30.921 -13.7322 -47.3025 177 176 175
-30.6281 -12.9827 -46.1732 178 171 171
-30.8705 -13.6106 -43.6658 162 159 156
-30.5547 -12.8065 -40.7275 208 203 190
-30.5098 -12.6993 -37.1125 207 186 195
-30.719 -13.2499 -31.0352 194 186 185
-30.1061 -11.6891 -25.2298 227 207 191
-29.8176 -10.9509 -24.1176 204 205 212
-30.3337 -12.287 -19.2239 215 193 201
-30.0469 -11.553 -18.1178 191 194 199
-29.76 -10.8189 -17.0118 220 207 207
-29.45 -10.0333 -12.3745 176 180 194
-21.5236 10.3071 -7.62708 205 1 43
-21.2315 11.0545 -6.50087 207 12 74
-20.3768 13.2494 -6.64725 196 9 58
-20.0839 13.9989 -5.51794 216 3 37
-19.4981 15.4978 -3.25931 91 19 39
-19.2052 16.2473 -2.13 19 9 26
-29.3887 -13.6528 -92.8819 226 99 108
-29.259 -13.3168 -87.199 246 240 243
-30.0002 -15.2079 -83.1463 251 239 239
-30.1835 -15.6728 -78.6703 254 237 234
-30.1091 -15.4797 -74.9283 227 227 221
-29.8102 -14.7147 -73.7757 227 212 218
-29.7746 -14.6223 -71.9109 240 227 225
-30.0036 -15.2054 -69.3385 240 232 233
-29.97 -15.1181 -67.4814 242 235 227
-30.2018 -15.7084 -64.9199 242 241 231
-29.9053 -14.9497 -63.7766 244 220 230
-29.8741 -14.8685 -61.9289 243 233 219
-30.1095 -15.4682 -59.3813 238 222 215
-30.3466 -16.0718 -56.8399 219 221 217
-30.052 -15.3182 -55.7044 217 193 192
-30.0245 -15.2464 -53.8706 221 182 184
-29.7304 -14.4938 -52.7366 182 188 195
-29.9719 -15.1089 -50.2123 184 175 179
-29.6786 -14.3583 -49.0814 164 165 175
-29.3853 -13.6078 -47.9506 173 151 169
-29.2319 -13.2057 -35.2661 192 188 209
-28.9414 -12.4624 -34.1461 212 200 219
-29.1954 -13.1094 -31.6698 186 189 186
-28.3105 -10.8436 -26.5303 219 202 186
-28.2811 -10.7658 -22.962 189 194 221
-29.0927 -12.837 -19.1808 199 194 209
-28.8058 -12.1029 -18.0747 193 184 200
-28.4985 -11.3137 -13.4345 192 184 199
-27.3543 -8.38577 -9.02271 191 1 90
-21.6885 6.09586 -7.90833 201 62 119
-20.2599 9.74712 -7.58317 211 11 43
-19.1096 12.6879 -6.60322 210 6 58
-18.8167 13.4373 -5.47391 213 3 27
-18.24 14.9118 -4.97771 209 40 43
-18.231 14.9363 -3.21528 140 31 45
-17.9381 15.6858 -2.08596 7 1 30
-28.1177 -14.3521 -94.7367 193 23 88
-28.0746 -14.2352 -92.8362 223 32 93
-27.7708 -13.4579 -91.6651 254 249 219
-27.9908 -14.0076 -89.0447 235 235 247
-27.6879 -13.2324 -87.8766 205 216 229
-28.1729 -14.4537 -84.5441 207 205 221
-28.3973 -15.0147 -81.9407 188 211 220
-28.0964 -14.2446 -80.7804 183 195 215
-28.2873 -14.7134 -76.3139 202 192 223
-28.517 -15.2878 -73.7308 208 202 223
-28.1846 -14.4307 -70.715 222 196 221
-28.4179 -15.0144 -68.1458 192 199 220
-28.6225 -15.5181 -63.732 190 204 226
-28.5931 -15.4362 -61.8843 190 198 214
-28.5367 -15.2786 -58.1982 211 208 211
-28.778 -15.8829 -55.6601 206 204 192
-28.4835 -15.1292 -54.5246 211 166 193
-28.4581 -15.0577 -52.6924 209 209 213
-28.703 -15.6712 -50.1682 201 190 194
-28.4097 -14.9206 -49.0373 193 189 181
-27.759 -13.2357 -41.3256 178 178 203
-27.993 -13.8146 -37.0251 225 216 218
-27.3628 -12.1822 -29.3925 183 190 211
-27.0731 -11.441 -28.2756 177 178 199
-26.7697 -10.658 -25.3715 212 206 213
-26.7447 -10.5807 -21.8064 165 181 210
-26.7334 -10.5451 -20.0285 224 204 208
-27.0004 -11.2152 -17.5896 193 188 209
-26.9911 -11.1848 -15.8195 189 184 210
-24.4151 -4.59954 -7.62126 209 1 24
-18.1354 11.3768 -7.6885 208 8 50
-17.2644 13.599 -6.06448 231 5 21
-16.6778 15.1 -3.80275 180 30 37
-16.3845 15.8505 -2.67188 14 1 11
-26.4567 -14.0402 -91.6194 254 237 226
-26.153 -13.263 -90.4482 249 241 248
-26.8675 -15.0322 -84.4987 227 226 211
-26.5658 -14.2601 -83.3352 232 213 207
-26.7591 -14.7194 -78.858 228 218 211
-26.9906 -15.2881 -76.2688 241 222 205
-26.9248 -15.096 -72.5332 222 220 212
-26.8931 -15.003 -70.6701 217 205 206
-26.5946 -14.2391 -69.5191 213 208 214
-26.8321 -14.8233 -66.9531 222 213 215
-27.0432 -15.3278 -62.5442 212 206 204
-26.7467 -14.5691 -61.4009 214 211 195
-26.7198 -14.4885 -59.5564 213 203 201
-26.9638 -15.0891 -57.0152 220 199 192
-27.2094 -15.6939 -54.4803 211 158 193
-27.1857 -15.6215 -52.6482 215 205 200
-27.1408 -15.4829 -48.9932 203 187 172
-26.8475 -14.7324 -47.8624 213 182 174
-25.948 -12.4188 -42.6532 205 194 193
-26.4773 -13.7377 -39.4713 210 198 207
-26.1856 -12.9913 -38.3466 210 206 220
-25.571 -11.395 -32.4951 225 212 192
-25.2661 -10.6029 -29.5787 200 189 187
-25.5302 -11.2551 -27.1151 198 190 182
-25.5183 -11.2125 -25.328 211 197 201
-25.7852 -11.8719 -22.8752 205 202 211
-25.4967 -11.1337 -21.763 210 203 211
-26.037 -12.4688 -16.8824 206 193 202
-25.7501 -11.7347 -15.7764 211 195 192
-23.1723 -5.15026 -7.57808 214 3 28
-20.8899 0.631003 -7.48234 208 80 119
-20.3161 2.08745 -7.01084 208 16 81
-20.0264 2.8287 -5.89393 218 97 116
-18.8807 5.72486 -6.69932 221 119 129
-18.5898 6.4692 -5.57775 206 1 67
-15.7023 13.7872 -4.88952 207 11 35
-15.409 14.5377 -3.75865 172 37 51
-15.1157 15.2883 -2.62779 14 1 49
-25.1818 -14.74 -93.4725 201 1 88
-25.1426 -14.6226 -91.5737 249 218 189
-24.8388 -13.8453 -90.4025 245 239 247
-25.0298 -14.2827 -85.896 188 205 233
-25.2603 -14.8386 -83.2899 200 201 223
-25.1584 -14.5265 -77.6541 215 224 216
-25.6316 -15.6691 -72.4883 186 199 215
-25.5166 -15.3065 -65.0546 187 203 215
-25.2193 -14.5457 -63.9082 205 205 218
-25.4639 -15.1376 -61.3563 202 203 213
-25.4388 -15.0562 -59.5119 195 198 209
-25.1426 -14.2984 -58.3701 209 203 213
-25.6408 -15.5049 -53.3005 188 185 176
-25.6193 -15.4328 -51.47 166 173 190
-25.2854 -14.5442 -46.6874 199 193 202
-25.2667 -14.4793 -44.8678 189 193 202
-24.388 -12.2308 -41.4798 215 205 206
-25.1853 -14.1856 -35.8161 182 170 208
-24.8944 -13.4413 -34.6945 171 192 201
-24.3126 -11.9526 -32.4514 207 205 194
-24.0217 -11.2083 -31.3298 192 188 185
-24.0095 -11.1598 -29.535 194 201 197
-24.2771 -11.8104 -27.0716 200 198 193
-24.5372 -12.4249 -22.8319 196 197 215
-23.9603 -10.9486 -20.6074 182 186 211
-24.5149 -12.3167 -17.5033 196 201 201
-24.2276 -11.5816 -16.3957 187 185 198
-23.9277 -10.763 -9.99664 211 205 190
-23.0748 -8.61446 -10.203 203 51 126
-21.9295 -5.70099 -7.53489 209 1 46
-14.1493 13.9177 -7.24526 216 10 39
-13.8552 14.6703 -6.11129 210 7 26
-14.1401 13.9754 -3.71456 196 48 66
-13.8468 14.726 -2.5837 168 121 136
-23.866 -15.3231 -93.4267 194 1 71
-23.5247 -14.4277 -90.3569 246 238 250
-23.221 -13.6504 -89.1857 215 224 238
-23.7209 -14.8628 -85.8505 210 208 225
-23.6532 -14.6449 -82.0811 207 204 210
-23.8896 -15.2054 -79.4843 214 212 218
-23.8582 -15.1027 -77.6089 220 213 218
