ply
format ascii 1.0
element vertex 1291
property float x
property float y
property float z
property uchar red
property uchar green
property uchar blue
end_header
-27.9019 -23.1743 136.335 98 38 72
-34.7654 -10.1586 136.131 119 52 87
-32.3568 -17.0865 136.002 114 48 92
-31.2767 -18.0762 135.993 112 40 84
-29.0128 -21.7426 135.938 112 53 96
-27.707 -23.6154 135.913 104 47 81
-30.1189 -20.3171 135.544 109 49 106
-29.9044 -20.7651 135.536 115 57 114
-32.8894 13.4605 135.894 119 78 60
-32.2905 -17.0829 135.181 113 46 87
-26.427 -24.6448 135.075 110 47 78
-31.3457 -18.4584 134.748 107 33 61
-32.4417 -17.0464 134.358 112 42 83
-29.8585 -20.7522 134.298 100 28 67
-25.4656 -24.7896 134.25 101 31 69
-25.3589 -25.2252 134.241 98 30 73
-23.9109 -26.303 134.231 95 28 81
-32.7359 13.4707 134.665 116 77 60
-31.3883 -18.4383 133.924 101 31 63
-30.2042 -20.2768 133.893 107 41 82
-29.5603 -21.6219 133.867 105 42 94
-29.6814 -20.7667 133.473 110 47 91
-25.6204 -24.7509 133.416 92 32 61
-25.5139 -25.1864 133.407 93 35 69
-32.6697 13.4809 133.845 112 72 61
-31.2387 -18.8543 132.68 107 38 77
-29.6141 -20.7639 132.647 115 48 87
-26.6673 -24.5656 132.579 97 28 62
-32.4392 -17.0127 132.304 109 26 63
-31.4896 -17.9757 131.875 102 29 77
-31.172 -18.851 131.856 100 31 75
-29.6568 -20.7437 131.82 99 26 61
-26.3762 -24.6002 131.748 93 28 64
-31.7445 15.9026 132.265 112 68 62
-35.0082 -10.8676 131.614 100 18 66
-27.8321 -23.522 131.35 99 44 76
-25.9567 -25.0802 131.323 94 37 59
-31.9889 15.5198 131.843 111 64 60
-29.4897 -21.5863 130.974 101 32 71
-26.4192 -24.5799 130.916 111 60 82
-32.7315 -16.1169 130.679 124 59 112
-31.8757 -17.4834 130.65 121 58 110
-31.2359 -18.8209 130.62 124 63 116
-29.8258 -20.2823 130.59 123 62 101
-27.7641 -23.5198 130.521 112 57 92
-30.934 -19.2744 130.198 115 48 93
-34.1524 -13.4248 129.918 104 22 62
-32.5616 -16.5409 129.847 102 23 61
-31.1691 -18.8176 129.796 105 28 55
-30.0831 -19.8141 129.774 107 30 56
-29.5436 -20.728 129.753 106 31 54
-29.3336 -21.5911 129.733 100 26 51
-32.8987 -15.6593 129.457 99 18 61
-27.8285 -23.4894 129.276 95 24 67
-27.1678 -24.0136 129.264 98 30 74
-26.9505 -24.4661 129.253 100 33 69
-31.7683 15.5416 129.787 108 60 58
-31.3211 -18.7806 128.972 116 56 112
-29.5863 -20.7078 128.926 118 57 107
-29.3764 -21.5709 128.906 108 41 80
-27.8499 -23.4792 128.861 96 27 80
-26.7495 -24.4925 128.837 110 49 87
-32.6202 -16.0993 128.624 98 20 63
-31.1287 -19.2171 128.549 118 59 104
-30.915 -19.6641 128.538 119 61 102
-25.8892 -25.463 128.397 101 34 65
-30.503 -20.1357 128.114 119 57 100
-26.6863 -24.907 127.995 108 45 73
-31.2757 -18.7673 127.735 104 28 79
-31.1765 -19.6098 127.715 110 37 83
-29.5507 -21.5231 127.665 101 29 62
-27.5868 -23.9186 127.604 100 33 70
-34.9531 -6.70182 127.621 107 39 60
-34.9582 -7.11143 127.611 109 31 66
-30.6554 -20.0983 127.289 101 28 54
-29.7819 -20.6501 127.273 101 27 54
-27.5024 -24.3425 127.178 99 29 55
-30.8657 17.5698 127.774 88 46 52
-31.2089 -18.7641 126.91 96 27 72
-31.0003 -19.6238 126.888 102 42 81
-29.3732 -21.538 126.837 103 40 77
-27.8515 -23.8621 126.775 105 42 76
-27.5291 -24.7481 126.753 100 34 65
-34.8825 -6.28633 126.811 140 129 168
-33.4302 -11.4153 126.682 101 20 65
-30.1493 -20.1642 126.459 115 60 106
-29.7146 -20.6472 126.445 113 56 101
-30.6842 17.9847 126.958 86 51 61
-27.9949 -22.9929 125.966 120 62 101
-27.8944 -23.8419 125.945 114 54 91
-27.683 -24.7096 125.924 111 45 78
-33.4419 -8.92974 125.92 112 45 75
-33.8855 -9.69213 125.905 103 27 67
-33.5708 -10.5584 125.882 102 21 66
-33.5862 -11.7909 125.853 103 20 66
-31.3668 -17.4789 125.703 96 19 59
-31.1634 -18.7508 125.672 101 26 75
-29.2169 -21.5428 125.593 111 45 94
-34.8382 -6.27045 125.583 152 158 203
-34.9562 -7.07575 125.564 153 158 191
-30.1035 -20.1512 125.218 101 30 80
-31.1906 -17.492 124.877 96 18 54
-34.8288 -10.7731 124.656 115 63 92
-31.1128 -18.3245 124.443 97 19 54
-34.4612 11.7695 124.781 79 69 93
-30.0526 -19.7243 123.987 100 25 63
-27.9338 -23.789 123.039 101 32 66
-36.1275 -13.0215 122.978 95 21 57
-30.0067 -19.7112 122.745 99 19 64
-31.2194 -18.2741 122.381 100 18 54
-27.9715 -23.3531 122.218 97 30 61
-30.2693 -19.6567 121.922 102 22 66
-31.3714 -18.2372 121.558 100 18 56
-30.1859 -20.0776 121.497 105 32 73
-28.0411 -23.7384 120.963 110 41 70
-30.4432 -19.6094 120.685 97 20 53
-30.0139 -20.5059 120.656 103 29 54
-31.0968 -17.4311 120.334 100 19 59
-31.2166 -18.2406 120.317 98 19 61
-35.345 9.88356 120.651 125 128 182
-34.9692 -11.9081 120.121 117 62 88
-31.1336 -18.6604 119.892 98 19 61
-30.4859 -19.5892 119.858 95 20 60
-30.1666 -20.4684 119.832 106 41 72
-28.2163 -23.6899 119.72 108 49 90
-35.2008 -11.4578 119.726 137 121 152
-31.249 -17.3943 119.511 101 20 56
-31.077 -19.4836 119.045 96 18 57
-35.2278 -10.2084 118.937 164 169 203
-35.2432 -11.4378 118.908 156 165 187
-31.7445 -18.546 118.667 98 19 61
-31.3174 -19.4394 118.637 97 18 58
-31.6778 -18.5427 117.84 99 27 54
-35.2964 -10.5882 117.7 153 165 203
-31.1624 -19.4433 117.394 98 24 55
-35.1291 13.1991 117.858 156 162 200
-35.0316 12.3696 117.836 151 159 203
-35.1495 11.5603 117.819 142 155 204
-35.052 10.7305 117.797 134 150 198
-31.0741 -19.4503 116.978 101 32 61
-35.0077 10.75 116.566 142 154 200
-31.1433 -19.8334 115.73 101 30 64
-27.4271 -23.3349 115.55 98 33 60
-26.6632 -24.7123 115.497 99 33 58
-28.4368 -22.3318 115.184 111 57 94
-35.0551 10.3601 115.738 137 155 201
-28.3475 -22.3394 114.766 125 63 94
-26.7063 -24.692 114.664 113 46 77
-27.3804 -23.3225 114.299 114 43 73
-37.3874 -7.78013 114.138 166 143 178
-31.6672 -18.0627 113.72 105 29 69
-30.8166 -20.2652 113.641 98 30 72
-27.3122 -23.3202 113.463 98 26 60
-26.6542 -24.2627 113.421 95 25 59
-32.0061 -17.1771 113.338 98 28 68
-32.1314 -16.7379 112.94 95 22 61
-31.1832 -19.78 112.837 104 39 72
-27.0265 -23.7708 112.61 97 26 55
-32.0487 -17.1569 112.514 98 22 61
-31.1001 -20.2005 112.41 109 47 68
-30.4518 -21.132 112.366 111 49 67
-34.5558 10.3668 112.849 151 155 202
-30.6877 -20.6732 111.971 109 38 64
-27.0695 -23.7505 111.777 101 25 54
-31.2421 -19.3363 111.608 100 22 61
-34.1809 9.11237 111.984 158 149 203
-27.0011 -23.7483 110.94 100 27 65
-34.9433 10.4285 111.632 141 109 157
-32.0144 -16.3077 110.881 98 20 64
-34.9542 11.2587 111.242 123 68 109
-32.046 -17.1232 110.449 99 26 70
-30.9875 -20.1845 110.336 122 65 97
-26.938 -24.1631 110.093 107 43 71
-34.5537 10.4063 110.796 98 38 74
-34.1312 9.54243 110.759 100 40 77
-31.1082 -19.3301 109.947 118 54 80
-27.0657 -23.7178 109.691 108 35 67
-26.8532 -24.5883 109.662 102 34 61
-29.6108 -21.2186 109.431 110 33 58
-25.5438 -25.635 109.169 101 32 55
-27.4427 -23.6432 108.872 100 30 65
-27.1191 -24.5313 108.838 96 22 53
-30.6287 -19.7991 108.674 100 28 66
-29.3225 -21.2509 108.588 106 41 75
-26.4768 -25.0486 108.383 97 25 60
-25.9282 -25.9767 108.339 96 32 71
-26.1682 -25.5115 107.941 96 27 59
-32.6155 -17.4092 107.985 112 41 85
-30.4517 -19.8132 107.838 108 32 71
-29.5809 -20.7807 107.778 104 32 71
-29.3706 -21.6457 107.749 113 43 80
-27.0619 -23.6851 107.604 113 44 87
-26.9557 -24.1203 107.589 108 36 75
-31.2312 -18.856 107.479 116 37 74
-29.5238 -21.6079 106.925 103 24 54
-26.6694 -24.5721 106.73 95 21 50
-26.3447 -25.4624 106.695 95 20 51
-31.1643 -18.8528 106.647 107 34 83
-29.7555 -20.7329 106.54 103 31 71
-27.2327 -23.2196 106.37 100 31 65
-26.6009 -24.5701 105.891 99 35 75
-26.3879 -25.442 105.861 103 40 69
-32.3999 -17.8213 105.9 125 56 103
-29.6984 -21.56 105.687 120 58 105
-27.1644 -23.2173 105.532 113 45 81
-31.338 -18.8056 105.413 121 50 98
-31.2335 -19.2362 105.398 118 46 96
-29.93 -20.6852 105.303 120 53 103
-28.8411 -22.1063 105.218 116 52 100
-29.7413 -21.5397 104.858 107 34 75
-28.1977 -22.2027 104.769 105 33 70
-26.5539 -24.5579 104.635 94 26 56
-26.3408 -25.43 104.604 100 32 59
-31.5998 -18.7516 104.599 107 29 61
-27.229 -23.1868 104.282 98 26 52
-27.0329 -23.6299 103.844 101 34 62
-26.8203 -24.5008 103.813 97 32 64
-26.2774 -25.846 103.753 107 43 71
-31.6425 -18.7314 103.773 116 56 104
-29.9372 -21.4817 103.206 121 59 92
-26.8634 -24.4805 102.979 100 35 65
-26.2087 -25.8443 102.913 114 47 73
-31.6852 -18.7112 102.947 116 42 96
-31.3669 -19.5893 102.909 117 45 99
-27.2089 -23.5812 102.6 101 30 65
-34.7742 -11.23 102.875 102 18 63
-30.7452 -20.9246 102.43 102 30 71
-27.1243 -24.0063 102.168 97 28 73
-27.252 -23.5609 101.767 98 33 69
-26.3852 -25.7951 101.667 96 38 63
-31.7492 -18.681 101.708 106 37 78
-31.3213 -19.5762 101.664 109 49 82
-27.0611 -24.4215 101.318 114 58 84
-26.9548 -24.8572 101.302 114 59 85
-33.9971 -13.3793 101.546 121 50 108
-29.7083 -21.0687 101.125 118 58 91
-27.2951 -23.5405 100.934 103 41 64
-26.6518 -25.7375 100.845 112 52 78
-31.2544 -19.5731 100.831 116 50 79
-30.2757 -20.5566 100.753 118 50 79
-27.2156 -24.3828 100.491 110 42 67
-26.9979 -24.8368 100.468 112 43 68
-34.9934 -11.5754 100.82 111 27 80
-31.9226 -18.6339 100.476 104 30 68
-29.8615 -21.031 100.303 105 35 73
-30.4286 -20.5191 99.9313 103 35 82
-29.557 -21.4886 99.8583 99 34 62
-27.1369 -23.5462 99.6709 94 24 66
-26.7061 -24.8717 99.614 100 41 74
-26.4879 -25.3263 99.5905 99 41 70
-33.8702 -13.7822 99.8784 118 45 91
-31.9815 -18.1903 99.2478 121 59 106
-27.2966 -23.925 98.8344 101 38 75
-26.4245 -25.7424 98.7391 115 61 93
-31.6797 -18.6442 98.8045 126 65 106
-29.511 -21.4758 98.607 118 57 89
-26.7708 -24.8411 98.3627 112 49 86
-33.8306 -14.1797 98.6282 121 47 85
-30.1788 -20.1158 98.264 110 44 61
-29.7429 -20.6001 98.226 109 44 61
-26.4676 -25.722 97.9043 105 39 61
-31.3937 -18.6748 97.9572 110 36 64
-30.6353 -19.6223 97.8879 105 37 62
-29.4434 -21.4731 97.7702 104 35 63
-27.4674 -23.4592 97.6016 97 27 62
-26.7023 -24.8392 97.5213 97 26 60
-33.661 -14.6033 97.7817 112 38 85
-30.0012 -20.1301 97.421 104 37 81
-29.7857 -20.5799 97.3967 105 38 84
-27.8176 -22.978 97.2168 94 26 71
-34.7358 -11.9675 97.5003 125 59 110
-29.4863 -21.4528 96.9403 112 43 84
-31.6666 -17.7833 96.7516 123 56 89
-31.4578 -18.6445 96.7172 112 42 66
-30.1594 -20.5075 96.5895 108 39 80
-29.8338 -20.9748 96.5575 109 41 83
-34.572 -12.8007 96.645 122 47 88
-30.7261 -19.9963 96.2223 110 36 70
-31.5998 -17.7799 95.9178 120 39 72
-31.5005 -18.6243 95.8906 111 31 66
-34.8258 -12.3385 95.8482 113 33 77
-31.3453 -18.6278 94.635 99 16 53
-36.0211 9.61949 95.2333 82 77 40
-31.3563 -17.7897 94.2412 103 18 62
-31.8375 -17.7027 93.4464 101 18 55
-34.0623 -14.0349 92.0393 104 17 58
-31.8665 -18.4863 90.9393 98 16 54
-35.009 -13.4571 90.4728 100 17 54
-32.9976 -16.2235 89.8369 136 76 93
-35.1808 -13.4114 89.2497 106 44 101
-35.2233 -13.3913 88.4285 141 87 126
-35.0707 -13.3926 87.1781 117 37 63
-33.6972 -14.8241 86.6151 101 19 59
-30.8 -19.8225 86.249 96 18 51
-31.9928 -16.7267 86.0101 104 17 58
-30.9262 -19.3805 85.8543 104 30 59
-33.4133 -14.8521 85.7623 103 16 59
-32.9824 -15.3294 85.7137 102 15 58
-31.8163 -16.7395 85.1638 104 17 57
-29.9928 -20.7611 84.9071 101 35 52
-33.7772 -14.3715 84.9773 103 18 54
-32.38 -16.2334 84.8097 102 19 55
-28.7068 -22.6272 84.3319 108 38 64
-32.9373 -15.3153 84.4662 102 16 57
-28.7335 -23.0337 83.9059 101 31 55
-33.8044 -13.1141 84.1829 127 53 92
-32.4279 -16.6269 83.9737 101 16 55
-27.998 -24.8186 83.3782 92 15 49
-0.0109794 -35.1761 80.6453 103 61 98
-33.8309 -13.5165 83.7612 122 52 86
-32.9851 -15.7083 83.6311 101 18 61
-30.3157 -20.2602 82.8626 138 96 122
-28.5865 -23.8728 82.6169 93 17 51
-0.0791638 -35.1439 79.3265 100 61 97
-28.6295 -23.8524 81.7843 91 17 50
-28.1954 -24.7595 81.7219 90 15 49
-28.2385 -24.7391 80.8886 90 15 51
-33.7675 -13.8902 80.8466 106 18 65
-34.6424 -12.518 80.5503 107 19 60
-29.9295 -21.5234 79.874 96 19 50
-28.8481 -23.7835 79.714 92 19 50
-28.5254 -24.6719 79.6609 92 15 47
-33.5975 -14.3145 79.9908 105 18 62
-37.054 -3.12593 80.1925 137 54 118
-28.7802 -23.7813 78.8703 92 18 53
-28.5685 -24.6516 78.8279 92 16 52
-29.6622 -21.5458 78.5942 97 25 49
-28.1505 -25.1322 78.356 92 16 49
0.0486058 -36.4233 74.8606 114 109 144
-29.4838 -21.5608 77.7401 118 92 128
-28.6227 -23.7871 77.5983 94 18 57
-28.5167 -24.2223 77.5769 93 16 55
-32.981 17.4928 78.6513 124 53 87
-32.3158 -16.9553 77.7223 135 125 156
-31.9145 -18.2543 77.2332 147 156 180
-31.7054 -19.117 77.1904 147 155 177
-30.0798 -21.4524 76.9669 145 150 167
-35.1237 14.8053 77.9734 134 64 97
-32.4681 -16.9186 76.9071 153 151 167
-31.8314 -18.6755 76.798 140 146 165
-30.5323 -20.541 76.6183 137 135 161
-29.7748 -21.9112 76.5064 137 129 141
-32.9307 17.9271 77.4121 121 40 71
-31.5286 -19.1308 76.339 126 122 138
-29.2791 -24.9055 75.9622 92 16 50
-36.8089 -4.33032 76.8424 125 52 86
-31.7644 -18.6722 75.9584 95 96 120
-30.1442 -21.422 75.721 89 84 122
-29.3907 -23.2111 75.5978 96 33 50
-35.6197 14.8738 76.7872 116 25 72
-31.3517 -19.1447 75.4869 100 104 119
-0.594711 -35.3798 71.8563 100 71 109
-36.3796 -9.71743 75.8376 116 74 109
-30.6181 -20.5005 74.9585 114 119 111
-29.6499 -22.7385 74.8001 119 71 80
-29.2172 -23.6434 74.7317 93 22 53
-8.04542 -33.189 72.2561 99 49 77
-31.7189 -18.6588 74.7045 113 124 156
-31.0698 -19.5907 74.612 125 136 148
-36.8936 -4.29031 75.2036 137 61 122
-34.9556 -13.6131 74.7617 136 138 178
-29.8035 -22.7004 73.9809 124 72 85
-29.3711 -23.605 73.9118 95 21 55
-0.539212 -35.3694 70.524 104 71 107
-36.5509 -9.67253 74.6192 118 76 105
-31.7617 -18.6386 73.8764 95 92 120
-31.1127 -19.5705 73.7828 110 116 144
-30.7927 -20.4528 73.7261 100 103 116
-34.8897 -13.6087 73.9268 133 131 163
-36.5882 -9.24194 73.8088 112 62 91
-36.0646 -10.5488 73.7185 132 122 139
-30.51 -20.9002 72.8489 111 126 158
-29.5464 -23.5565 72.6764 93 20 53
-29.5619 -24.8059 72.6467 90 15 46
-36.9784 -4.2503 73.5648 104 74 115
-31.6115 -19.0569 72.5993 126 128 148
-29.9949 -22.2258 72.3409 144 113 129
-36.528 -9.64734 72.9666 122 79 123
-36.1071 -10.5288 72.8976 143 133 156
-35.0619 -13.5629 72.7048 138 139 164
-34.5298 -14.4663 72.6229 142 143 163
-32.0616 -18.1499 72.2553 124 122 129
-31.8474 -18.5981 72.2202 114 116 128
-29.4786 -23.5542 71.8318 94 20 54
-31.4397 -19.4856 71.7355 101 111 135
-30.4745 -21.7188 71.571 117 109 126
-29.8218 -22.6573 71.4742 119 70 84
-35.0993 -13.1309 71.8919 123 132 160
-32.214 -18.1129 71.4404 92 90 112
-31.9999 -18.561 71.4049 85 84 106
-28.9932 -25.7094 70.8852 94 20 51
-36.4788 -9.22139 71.7333 120 76 108
-31.2679 -19.9148 70.8709 118 123 133
-29.6487 -23.0893 70.6067 99 33 45
-29.2262 -24.8285 70.5148 94 17 54
-34.615 -14.4261 70.9756 116 130 171
-32.1472 -18.1095 70.5999 111 131 167
-31.9382 -18.9723 70.5542 118 139 164
-30.4285 -21.706 70.3123 143 136 144
-37.0337 -7.07613 71.0256 149 147 173
-36.3159 -10.0527 70.8677 145 122 146
-35.0599 -13.5284 70.6351 141 138 167
-32.273 -17.6683 70.209 130 128 152
-29.5862 -23.5035 69.7517 94 22 49
-29.0578 -25.6789 69.6358 93 18 49
-0.890108 -35.2403 66.1428 104 70 103
-32.1848 -17.6749 69.782 112 107 120
-31.7614 -18.9861 69.6997 118 116 136
-30.4714 -21.6857 69.4817 139 128 130
-34.8907 -13.9519 69.7762 124 124 153
-32.1017 -18.096 69.345 93 102 121
-31.3484 -19.4592 69.2225 106 115 146
-29.5184 -23.5012 68.9062 96 21 50
-28.9898 -25.6771 68.7894 92 21 47
-35.0102 -13.1019 69.3973 127 139 162
-31.6944 -18.9829 68.8579 115 125 148
-30.404 -21.6831 68.6376 143 135 144
-37.1185 -7.03611 69.3864 118 119 130
-35.0366 -13.5039 68.976 134 142 165
-32.4629 -17.197 68.5771 121 132 118
-32.1445 -18.0758 68.5172 116 123 125
-31.2813 -19.4561 68.3798 134 136 145
-30.7461 -20.7888 68.2826 126 128 140
-28.9219 -25.6754 67.9426 95 17 50
-0.981 -35.1974 64.3848 103 70 103
-36.6324 -9.56204 68.852 124 86 135
-30.7675 -20.7786 67.8675 112 113 129
-30.3366 -21.6805 67.7932 140 126 133
-29.4721 -23.4888 67.6442 90 21 46
-29.1654 -25.6281 67.5535 96 18 51
-1.26717 -36.4627 63.9445 112 113 136
-1.27813 -37.3425 63.9236 107 120 140
-37.1608 -7.0161 68.5669 150 114 154
-37.0687 -8.26157 68.5243 159 108 143
-32.1821 -17.6411 67.6991 105 111 131
-31.7535 -18.5377 67.6249 115 118 139
-31.3242 -19.4358 67.5505 93 101 121
-35.3069 -12.6186 67.788 111 115 148
-35.1004 -13.4738 67.7413 131 132 162
-29.5152 -23.4685 66.8118 93 21 55
-36.9933 -7.43513 67.7106 147 98 138
-32.5433 -16.7424 66.9323 103 111 138
-32.1153 -17.6376 66.8574 101 111 140
-31.6865 -18.5344 66.7824 110 121 154
-31.042 -19.8824 66.6697 106 120 145
-37.0506 6.96444 67.6691 109 71 110
-35.0346 -13.4694 66.9045 132 138 162
-29.3365 -23.4843 65.9512 93 21 48
-28.585 -25.6988 65.8029 91 20 47
-35.4737 -12.1611 66.5774 105 110 133
-34.9525 -13.8873 66.4693 142 141 154
-31.6195 -18.5311 65.9396 128 131 154
-30.8697 -20.3123 65.8018 119 113 135
-36.8008 -4.14854 66.5313 134 110 151
-36.9493 -7.41946 66.4669 151 126 154
-32.6075 -16.7121 65.6912 119 122 127
-31.3213 -19.4023 65.463 125 123 141
-28.6281 -25.6784 64.9689 95 18 55
-36.8731 -8.24514 66.0235 166 132 155
-35.3049 -12.5839 65.7171 116 125 138
-34.99 -13.455 65.6556 124 131 147
-32.415 -17.1494 65.2394 105 114 121
-29.2902 -23.4719 64.6877 94 22 50
-36.7816 -7.83892 65.6092 177 161 176
-36.0575 -10.4085 65.4528 139 133 158
-35.0113 -13.4449 65.2439 125 131 146
-32.6502 -16.6919 64.8638 110 114 115
-32.0029 -17.6205 64.7587 103 111 111
-31.6838 -18.5007 64.6961 110 118 135
-36.7002 -8.25421 65.1752 172 141 162
-35.3474 -12.5638 64.8942 113 124 150
-35.141 -13.4192 64.8463 127 139 164
-33.4478 -15.7292 64.1568 122 137 163
-31.1921 -19.8115 63.7651 136 146 171
-36.0184 -10.8049 64.1962 146 144 152
-34.9718 -13.8428 63.9846 144 139 159
-32.8187 -16.231 63.6471 130 129 141
-33.8125 -15.247 63.3841 111 110 115
-31.1249 -19.8085 62.9205 93 95 113
-33.8287 -14.8236 62.9811 97 103 112
-32.8666 -16.6249 62.8101 89 100 133
-29.4409 -23.4007 61.7724 89 22 51
-29.8849 -21.6518 61.4559 162 150 162
-32.9308 -16.5946 61.5693 126 126 151
-31.0954 -19.3695 61.2553 156 168 190
-31.1169 -19.3594 60.8402 160 170 195
-35.0073 -13.3758 61.0967 104 102 129
-38.4151 0.663196 61.4995 160 108 160
-35.0286 -13.3658 60.6848 97 108 148
-32.1391 -18.3556 60.1673 134 145 156
-32.4844 -17.8803 59.8089 117 122 144
-29.771 -21.6364 59.3443 159 151 168
-33.5736 -15.6346 59.5978 117 112 134
-37.0632 -6.46647 59.8953 154 96 140
-29.7032 -21.6337 58.496 160 149 160
-38.0713 0.652711 59.8029 155 92 143
-32.8771 -17.7998 58.6135 105 114 141
-35.1402 -13.7279 58.6155 123 130 129
-33.8558 -15.5718 58.3896 102 113 111
-31.922 -18.7708 58.0387 120 126 147
-33.6591 -15.5942 57.9452 123 139 153
-29.8786 -21.5855 57.2629 141 122 145
-38.0124 1.89996 58.5887 116 75 109
-35.1828 -13.7078 57.7917 133 135 162
-29.9268 -21.982 56.4204 124 95 117
-38.1772 0.702677 57.7562 108 71 113
-33.718 -15.1503 56.7156 128 131 141
-29.7423 -23.2584 55.9418 91 21 50
-30.9388 -19.7223 55.7839 101 117 125
-32.9071 -16.917 55.7206 122 126 157
-32.2598 -17.8463 55.6035 117 118 147
-29.9862 -21.5347 55.1814 139 128 145
-29.8069 -23.2279 54.6924 92 20 51
-30.8928 -19.7091 54.5209 82 92 115
-29.7391 -23.2256 53.8428 91 22 50
-29.9615 -21.5117 53.4995 154 139 155
-37.016 -6.37873 54.5134 158 120 167
-31.0728 -20.0774 53.2812 145 157 171
-31.0995 -20.4833 52.8558 156 164 175
-37.7753 -3.38697 53.8761 157 141 162
-32.9526 -17.2773 52.7969 104 108 132
-29.9153 -21.4989 52.2333 166 152 167
-29.4926 -23.239 52.1253 94 21 56
-37.1874 -6.33451 53.2985 155 158 188
-35.0043 -13.6502 52.7818 118 123 140
-30.5801 -19.7171 51.9592 160 166 183
-29.826 -21.5064 51.7996 166 153 169
-37.8389 -3.35695 52.6465 165 152 169
-37.2298 -6.31448 52.4777 153 150 177
-35.1504 -13.2016 51.984 128 137 133
-29.7635 -21.9209 50.9392 151 114 135
-32.2864 -18.5987 50.9909 115 111 127
-28.8112 -24.1608 50.3156 89 20 45
-37.3491 -3.81528 51.7324 166 124 172
-33.7052 -16.2993 50.8504 107 113 117
-29.05 -23.6962 49.9433 87 21 45
-28.9656 -24.1221 49.4984 89 21 48
-37.6987 -2.52276 50.9923 160 98 143
-32.993 -17.2232 49.8818 110 119 113
-32.3507 -18.5684 49.7472 113 123 122
-37.3052 -3.79884 50.4843 159 100 153
-33.8681 -15.4249 49.6473 115 131 167
-29.9872 -22.2694 48.8639 119 63 84
-29.014 -24.5196 48.6537 91 20 54
-32.2838 -18.5651 48.9003 103 111 128
-37.3476 -3.7788 49.6635 159 100 146
-37.0554 -6.28675 49.5527 157 97 145
-31.2099 -19.1408 48.2973 106 116 139
-29.1683 -24.4809 47.837 89 19 53
-37.4866 -4.57685 49.251 160 98 145
-33.8231 -15.4108 48.3896 105 112 152
-31.1263 -19.564 47.8539 126 140 158
-37.7074 -3.30734 48.905 162 97 154
-32.2382 -18.5517 47.6383 107 122 159
-37.1191 -6.25668 48.3207 159 100 146
-35.2498 -12.7039 47.8543 131 140 144
-32.2811 -18.5314 46.8088 127 122 134
-31.0804 -19.5507 46.5887 114 109 134
-37.3461 -3.74229 47.5937 147 87 128
-37.0538 -6.25077 47.4815 157 98 144
-34.977 -13.5566 46.9561 132 134 141
-33.0495 -16.7443 46.5611 116 116 137
-35.4223 -12.6581 46.6356 137 138 151
-33.7116 -15.3928 46.2861 96 98 115
-37.7981 -2.0253 46.8836 154 91 147
-37.4961 -3.70866 46.7907 113 73 96
-37.1989 -5.80539 46.6878 118 79 123
-33.3009 -15.8621 45.7893 101 116 144
-32.3403 -18.0857 45.5744 105 127 110
-37.2252 -6.20655 46.2674 139 91 138
-35.4649 -12.638 45.8113 133 136 180
-33.4369 -16.25 45.3839 123 138 183
-31.0561 -19.5273 44.907 127 146 157
-28.9969 -23.6182 44.4622 90 19 48
-37.4515 -5.34626 45.9126 101 70 104
-32.0587 -18.5316 44.6791 112 115 131
-37.7645 -2.82997 45.6155 155 99 155
-37.2677 -6.1865 45.4461 143 98 140
-35.5075 -12.6179 44.987 130 139 130
-33.6879 -15.3686 44.6131 119 117 132
-33.3703 -16.2462 44.5376 118 119 137
-29.8186 -21.791 43.3825 149 113 121
-28.8389 -23.624 43.1713 91 18 51
-37.9144 -2.79655 44.8134 161 102 152
-37.305 -5.75526 44.6345 148 99 138
-33.2986 -15.8279 43.7007 120 122 153
-32.2278 -18.0688 43.4628 116 128 166
-31.9031 -18.5351 43.3962 110 120 160
-29.7292 -21.7985 42.9465 149 113 123
-37.3314 -6.15642 44.2141 157 105 142
-35.6747 -12.1595 43.779 117 127 142
-33.3251 -16.2323 43.2768 136 140 147
-30.1839 -20.8831 42.626 154 154 161
-28.7708 -23.6218 42.3165 91 18 49
-33.2319 -15.824 42.8536 133 140 148
-32.595 -17.5828 42.7 132 136 140
-32.166 -18.4809 42.604 122 124 128
-37.3739 -6.13637 43.3927 159 102 146
-33.368 -16.2121 42.4487 113 116 138
-28.5911 -23.6377 41.4419 89 20 49
-37.1745 -5.74321 42.9542 157 105 153
-34.4553 -13.9699 42.2752 115 111 141
-32.6379 -17.5626 41.8707 114 119 130
-32.2089 -18.4607 41.7739 100 106 108
-38.2044 -0.256852 42.8589 164 105 147
-37.0931 -6.15867 42.5147 155 116 172
-33.7284 -15.3141 41.6981 105 117 152
-34.3891 -13.9657 41.4296 121 125 156
-28.8788 -23.5708 40.2274 89 20 49
-35.3841 -13.3999 41.2 149 148 143
-33.7712 -15.2939 40.8706 139 137 156
-32.697 -17.117 40.6366 142 143 173
-32.1633 -18.4472 40.5093 114 116 133
-30.3184 -21.2392 40.1162 156 144 151
-28.9056 -23.9789 39.7996 90 21 48
-38.0745 -0.24247 41.1807 184 158 180
-34.5621 -13.9195 40.2094 100 103 112
-33.6057 -16.1351 39.9841 120 131 156
-32.6353 -17.5287 39.7777 122 128 168
-38.0957 -0.232458 40.7706 185 159 187
-33.8405 -15.6779 39.6194 127 138 154
-32.3376 -18.3999 39.2838 116 120 154
-31.7928 -18.9006 39.1747 109 119 152
-29.0869 -24.3484 38.5563 89 21 55
-32.7879 -17.4917 38.968 140 138 150
-32.0344 -18.8564 38.7991 132 129 148
-31.163 -19.8259 38.6196 133 141 153
-38.0052 1.82848 39.9797 137 125 161
-38.1381 -0.212433 39.9503 184 159 178
-33.8833 -15.6577 38.7918 136 140 156
-31.1897 -20.2323 38.1937 144 155 160
-29.1354 -24.7462 37.7108 91 23 52
-35.6878 -10.0058 38.8435 149 143 174
-34.8601 -13.4339 38.6064 142 137 142
-31.4268 -19.7711 37.8279 109 118 140
-31.2164 -20.6387 37.7677 157 161 156
-32.4235 -18.3593 37.6237 120 125 140
-29.1785 -24.7258 36.8753 90 26 52
-38.2017 -0.182395 38.7199 185 156 181
-35.622 -10.0007 37.999 141 140 164
-31.2594 -20.6184 36.9357 155 159 154
-32.3565 -18.356 36.7733 132 145 162
-31.7117 -19.7062 36.6213 124 143 157
-38.1163 1.46781 37.9188 179 166 188
-38.0243 0.222823 37.8696 186 160 189
-29.2433 -24.6952 35.6221 92 27 50
-33.8146 -15.6195 35.8545 128 131 155
-38.0726 1.48539 36.668 129 88 124
-38.0879 0.252874 36.6387 158 102 151
-35.8267 -9.10977 35.9773 131 103 131
-35.5219 -10.8064 35.8768 118 117 150
-32.2328 -19.1809 35.0516 120 124 144
-27.9746 -25.3054 34.1061 92 28 53
-27.1398 25.4339 34.8514 136 87 131
-33.0023 -17.3905 34.8214 135 143 157
-32.3643 -19.1537 34.6571 151 145 157
-28.8686 -23.4722 33.8965 91 25 52
-27.8896 -25.7332 33.6561 93 30 54
-37.9666 4.78035 35.9051 152 94 141
-38.1099 1.91626 35.8571 107 75 104
-38.1252 0.683745 35.8278 126 82 124
-33.7695 -15.6055 34.5918 159 154 168
-35.5859 -10.7762 34.6393 155 144 158
-32.8207 -16.9883 33.96 164 113 118
-28.3592 -23.9617 32.9436 96 29 62
-27.597 -25.7688 32.7539 94 30 54
-34.4467 -13.8317 33.9287 155 105 118
-27.8322 -24.8821 32.3977 94 29 51
-31.5848 -20.4994 32.7968 105 77 118
-27.4162 -25.7857 31.8722 92 31 52
-29.4117 -22.5121 31.9121 147 140 150
-28.6474 -23.8945 31.7312 120 77 81
-27.8756 -24.8616 31.5597 96 31 47
-34.5056 -13.3873 32.698 123 42 86
-31.1915 -20.9656 31.8692 154 141 157
-27.689 -26.1476 31.0671 93 32 54
-32.9124 -15.6915 31.9154 122 46 100
-28.3505 -23.5097 30.8389 134 104 105
-28.0307 -24.8227 30.7435 96 29 51
-29.2539 -22.5173 30.6153 100 98 91
-31.9024 -19.5813 30.7804 134 114 125
-28.1755 -23.945 29.9476 112 67 72
-36.4273 -12.2549 31.4281 121 92 132
-29.2971 -22.4969 29.7794 94 101 102
-28.3141 -24.3358 29.5409 97 36 59
-27.9839 -24.8105 29.4645 92 26 52
-31.5147 -20.4631 29.8415 103 89 99
-27.0174 -26.6485 28.805 91 32 50
-38.0619 -1.29945 31.2016 140 54 91
-36.9281 -5.56432 30.8684 133 46 84
-29.1228 -22.931 28.8892 131 122 112
-28.4639 -23.8778 28.7357 110 67 68
-36.1663 -12.2711 30.1272 165 161 182
-30.5946 -21.4245 28.3732 92 96 92
-28.3955 -23.8756 27.8759 114 68 67
-28.2994 -25.152 27.8235 93 30 49
-37.1204 -7.1681 29.6163 104 25 64
-27.4358 -26.1306 27.2036 92 30 48
-36.0032 -11.446 28.8662 155 136 147
-30.8591 -21.3689 27.5843 98 113 123
-29.8664 -21.946 27.372 106 117 119
-28.2309 -25.1501 26.9631 92 29 51
-29.1195 -22.898 26.7759 144 102 113
-27.1372 -25.7462 26.3059 91 29 49
-27.03 -26.1854 26.273 90 32 48
-37.3134 -7.11357 27.9925 112 31 72
-26.0603 -26.3346 25.2249 92 31 54
-34.4264 -16.1997 26.3365 153 94 105
-33.0295 -18.4912 25.993 96 28 60
-37.0689 -8.36298 26.662 104 24 63
-31.8884 -20.7404 24.8613 94 23 55
-33.2035 -18.4439 24.7709 93 26 57
-31.3632 -21.2347 24.3198 94 25 54
-26.1646 -24.1665 22.7504 91 29 50
-30.1881 -21.4083 23.2298 97 34 88
-27.2959 -22.7113 22.5972 103 44 93
-34.191 -13.2856 23.853 99 27 75
-31.7434 -19.9013 23.1703 92 28 56
-26.4388 -24.5302 21.9466 93 42 71
-32.0853 -19.0063 22.8442 91 25 50
-30.337 -20.9524 22.4284 118 56 81
-29.7921 -21.877 22.2904 129 58 73
-27.2374 -23.5498 21.7136 136 73 110
-29.7025 -21.8846 21.8488 109 41 54
-38.5106 -6.46334 23.6841 101 25 64
-30.3802 -20.932 21.5936 119 57 69
-30.1634 -21.3852 21.5361 107 41 64
-27.2808 -23.5293 20.8737 118 69 103
-26.3913 -24.5179 20.6607 128 81 107
-36.9374 10.6864 22.9731 140 65 90
-35.0829 -13.1148 21.5334 126 59 84
-27.9285 -23.3972 19.3161 129 54 71
-33.4454 -17.0759 19.8213 107 46 63
-28.1906 -22.9205 18.5362 99 31 65
-28.0839 -23.3585 18.5017 99 31 63
-25.9684 -25.3922 17.9928 106 63 89
-32.2685 -18.082 19.1207 100 28 55
-32.0748 -18.5223 18.6462 95 28 67
-30.4419 -20.868 18.2301 113 49 54
-26.4526 -24.4542 17.2703 99 42 73
-25.0095 -26.8078 16.8952 115 75 82
-33.5098 -17.0455 18.5765 131 72 81
-30.4635 -20.8578 17.8126 122 62 64
-28.2609 -23.3096 17.2684 123 62 75
-33.959 -16.1388 18.2787 178 144 157
-32.018 -19.3525 17.7696 104 33 66
-26.4962 -24.4337 16.4288 93 35 55
-28.4161 -23.271 16.4548 104 40 57
-32.1661 -18.8983 16.9718 93 27 55
-30.9663 -20.3395 16.6696 101 31 57
-29.9781 -21.3335 16.4257 112 41 63
-33.8095 -16.5565 16.9759 147 81 96
-29.1192 -22.3034 15.7873 96 30 53
-28.1454 -23.2948 15.1213 89 28 53
-29.8153 -20.9197 15.1314 90 27 55
-32.8025 -18.7725 15.4326 90 26 51
-35.2785 -13.4033 15.7097 141 63 97
-34.8692 -13.8708 15.1865 116 37 72
-34.8906 -13.8607 14.7725 102 30 64
-35.995 -13.2784 14.6194 98 27 61
-18.8907 -33.5007 231.367 131 161 200
-19.1611 -32.6754 230.953 126 151 167
-18.9122 -33.4929 230.953 119 148 148
-18.2097 -34.3082 231.041 108 141 145
-16.4773 -34.6941 230.53 124 150 180
-16.2948 -35.1047 230.541 123 153 175
-22.6176 -29.7895 227.186 133 156 173
-15.0037 -34.6394 228.336 154 185 211
-23.6877 -28.9743 226.216 129 140 170
-23.5089 -29.3789 226.226 129 142 165
-15.6892 -34.2147 227.405 130 158 167
-16.0299 -33.7888 226.54 129 146 159
-25.7327 -25.7333 224.804 120 126 137
-24.819 -28.5617 224.808 123 131 143
-26.9699 -24.527 223.833 129 133 158
-25.6409 -26.5281 223.961 122 128 153
-25.107 -27.7374 223.989 130 137 158
-18.3513 -32.5487 224.947 120 128 147
-24.7721 -28.5367 223.597 130 137 159
-24.6375 -29.3478 223.575 129 136 156
-19.0758 -31.7268 224.451 124 131 150
-19.4368 -31.7226 223.974 125 134 151
-19.0746 -32.5393 223.993 117 128 136
-18.5988 -33.3558 224.032 108 118 125
-25.6376 -26.9101 222.719 139 144 171
-25.171 -27.7143 222.758 137 144 171
-24.9692 -28.9304 222.724 135 143 168
-20.3844 -30.9058 223.439 127 138 159
-20.1361 -31.722 223.437 125 137 153
-30.8185 -17.7226 221.907 143 153 179
-30.6849 -18.5271 221.885 141 150 172
-26.8778 -24.898 222.205 135 136 166
-25.6802 -26.8948 221.899 142 153 176
-25.3245 -27.7009 221.917 136 150 169
-24.7902 -28.9114 221.943 133 150 163
-20.9457 -30.4874 222.542 130 146 161
-21.3044 -30.484 222.068 132 151 163
-21.798 -30.8989 221.956 131 148 161
-30.0952 -18.4803 220.78 144 152 147
-30.0705 -19.2897 220.738 140 147 145
-27.3389 -24.4787 220.928 140 149 159
-23.3872 -28.8727 221.38 139 152 168
-22.9174 -29.6812 221.417 135 150 168
-22.1555 -30.8953 221.483 132 149 164
-26.8958 -25.2717 220.556 144 158 159
-25.5902 -26.4619 220.719 141 153 158
-23.4086 -28.865 220.968 140 151 163
-30.1376 -18.465 219.964 142 148 139
-24.8557 -27.6599 220.373 140 151 156
-23.1394 -29.2605 220.585 137 150 153
-22.042 -30.4695 220.709 129 142 154
-32.3975 -7.60721 219.777 135 143 105
-27.5126 -24.4584 219.681 141 158 152
-26.8495 -25.2461 219.347 140 152 144
-22.0173 -30.8616 219.873 122 137 144
-30.5279 -18.454 218.684 135 130 123
-25.81 -25.6206 219.1 141 148 139
-23.0479 -28.8269 219.399 134 145 136
-22.5774 -29.6361 219.435 127 140 141
-21.8377 -30.0341 219.541 125 138 142
-22.4189 -31.2665 219.371 121 137 137
-30.356 -17.6288 218.355 140 130 121
-26.0092 -25.2101 218.681 140 144 127
-30.7287 -16.8242 217.931 139 128 113
-30.4862 -17.6253 217.928 135 125 109
-26.0977 -24.7972 218.282 139 140 119
-25.8093 -25.1973 218.309 139 141 120
-22.4197 -28.8005 218.691 125 142 112
-22.0604 -29.6124 218.707 121 134 117
-21.3639 -30.4205 218.782 120 130 124
-26.119 -24.7895 217.872 138 134 118
-29.6598 -22.8452 216.969 142 130 117
-26.8267 -23.9856 217.389 141 130 119
-25.9626 -25.1845 217.469 138 130 113
-22.4626 -28.7851 217.865 123 134 112
-21.3622 -29.9953 217.985 120 127 113
-20.7767 -30.8063 218.04 123 124 117
-22.0804 -29.1797 217.499 124 133 115
-20.3474 -30.7929 217.703 123 122 110
-26.9555 -24.7851 216.509 134 122 103
-26.0485 -25.5769 216.619 135 122 105
-23.6461 -27.9724 216.892 126 125 111
-34.1835 -8.4413 215.792 131 124 108
-31.9287 -14.8063 215.819 128 116 94
-25.6034 -26.3726 216.242 134 120 102
-21.382 -29.5621 216.775 122 124 106
-19.4865 -30.7662 217.027 120 118 103
-19.4185 -31.1759 217.016 118 117 103
-31.7054 10.9484 216.872 70 84 74
-31.983 9.2763 216.734 118 109 99
-28.4324 -22.7777 215.56 138 117 93
-22.728 -28.3484 216.207 127 125 114
-20.7731 -29.9548 216.445 120 117 98
-19.1683 -30.7542 216.67 118 116 100
-19.1456 -31.5753 216.628 116 117 100
-26.7317 -25.1615 215.306 129 115 85
-25.6461 -26.3572 215.421 127 113 91
-18.9405 -31.5651 216.251 115 119 102
-23.6438 -27.1236 215.304 124 108 92
-22.8827 -28.3349 215.363 123 114 94
-21.6266 -29.1322 215.528 119 112 90
-31.9717 -14.3689 214.22 126 121 100
-25.1784 -26.7383 214.663 122 108 82
-23.5301 -27.9298 214.869 122 112 86
-19.1877 -30.3194 215.454 117 109 97
-18.3249 -30.7196 215.575 115 112 100
-31.7758 -14.3515 213.849 133 131 118
-29.1807 -20.7389 213.926 140 116 87
-25.8881 -25.9311 214.183 121 110 83
-24.9105 -27.132 214.277 122 108 79
-23.484 -28.329 214.446 116 104 76
-21.1968 -29.9285 214.734 117 107 91
-25.9528 -26.3311 213.743 118 107 79
-24.0188 -27.9223 213.972 116 102 78
-22.0278 -29.1142 214.232 114 101 82
-18.3 -31.1146 214.732 117 112 94
-34.2235 -8.38185 212.967 131 94 76
-23.4593 -28.7205 213.611 114 100 80
-18.0028 -30.2795 214.413 115 101 79
-22.1829 -29.1005 213.388 114 98 77
-21.6663 -29.5017 213.45 115 98 77
-18.3888 -31.5109 213.871 116 104 83
-29.7697 -20.3192 212.232 134 94 75
-23.5697 -28.2981 212.798 114 98 70
-22.069 -29.9085 212.952 116 98 74
-17.636 -30.6706 213.625 117 98 77
-17.4089 -32.728 213.55 112 99 75
-27.8796 -21.875 212.045 130 87 70
-24.418 -26.6739 212.341 117 103 68
-17.8174 -31.0768 213.16 116 95 73
-27.8122 -21.8563 211.244 125 76 67
-18.0884 -31.0638 212.292 114 91 70
-18.4968 -31.4719 211.792 110 91 67
-15.6645 -32.6809 212.174 110 86 65
-15.596 -33.0936 212.163 110 86 66
-27.9647 -21.8442 210.407 122 74 66
-23.5887 -27.4413 210.795 112 101 91
-34.2181 -8.71602 209.723 120 96 74
-34.1515 -9.11727 209.712 122 103 84
-31.5951 -14.663 209.816 133 75 72
-28.4923 -21.4456 209.939 128 81 67
-18.54 -31.4564 210.961 108 92 63
-15.5931 -32.6643 211.357 109 92 62
-15.6394 -33.0779 211.328 106 84 60
-31.3661 -17.4815 209.297 126 68 68
-23.5199 -27.4237 209.988 109 99 94
-18.9251 -30.6303 210.532 108 87 61
-17.9247 -31.8533 210.623 110 97 70
-15.5927 -33.4827 210.899 101 79 60
-26.922 -23.8233 209.244 109 68 54
-25.6341 -26.2346 209.315 109 73 62
-16.0493 -32.2391 210.479 113 103 77
-15.6365 -32.6486 210.521 109 95 68
-33.1175 11.3911 209.747 142 150 189
-28.3793 -21.8234 208.718 115 58 59
-18.15 -31.4279 209.784 113 105 86
-25.7875 -26.2216 208.476 108 59 56
-23.6517 -26.9933 208.763 107 67 58
-23.1815 -27.8017 208.792 111 83 70
-17.9439 -31.4176 209.403 114 108 96
-28.5315 -21.8113 207.883 112 52 57
-33.0471 10.6046 208.495 99 100 116
-34.6044 4.73126 207.95 146 156 192
-34.1876 3.54024 207.951 138 148 183
-25.4979 -26.1991 207.706 108 53 59
-23.583 -26.9757 207.955 103 52 54
-23.1126 -27.7841 207.984 105 64 58
-17.3487 -31.8072 208.646 122 116 112
-34.1164 2.33058 207.493 137 134 154
-21.5176 -29.3864 207.73 104 57 56
-28.5953 -21.7883 206.655 105 38 55
-26.9395 -23.7742 206.8 114 77 75
-17.2779 -31.7904 207.83 113 90 70
-21.2679 -29.7763 206.926 99 41 52
-16.6595 -32.1887 207.487 109 75 68
-28.5282 -21.7696 205.854 102 34 53
-21.8747 -28.958 206.467 100 44 51
-34.0193 -8.6079 205.319 111 32 57
-25.9609 -25.3538 205.64 114 73 74
-24.0248 -26.9436 205.843 97 31 46
-17.5253 -31.3565 206.574 95 47 57
-16.52 -32.5841 206.658 99 49 51
-32.6421 -11.7698 204.954 116 27 61
-26.6937 -23.7348 205.208 122 89 120
-28.1527 -21.7334 204.691 97 26 53
-26.8255 -23.73 204.781 116 73 96
-17.3862 -31.7513 205.746 94 39 51
-16.975 -32.1596 205.785 95 41 53
-35.0054 3.54935 204.59 52 39 40
-25.9576 -25.7364 204.397 102 35 56
-24.4908 -26.5203 204.569 92 24 47
-22.9928 -28.1259 204.704 97 50 60
-28.0854 -21.7147 203.888 98 26 50
-25.979 -25.7287 203.986 95 27 51
-17.84 -31.3279 204.874 91 32 47
-26.0003 -25.721 203.575 94 22 49
-24.2434 -26.9072 203.767 89 24 46
-22.9916 -27.7006 203.906 92 46 58
-21.8913 -28.9097 204.002 120 99 91
-21.0806 -29.717 204.077 105 63 58
-16.6284 -32.545 204.572 94 43 48
-33.9462 -9.76691 202.847 122 48 63
-21.1021 -29.7093 203.663 109 68 67
-18.0655 -30.9022 204.036 94 32 51
-28.2592 -21.695 202.643 100 31 56
-26.043 -25.7056 202.753 92 20 50
-24.3976 -26.894 202.927 90 23 54
-21.7095 -28.8906 203.207 128 101 119
-16.145 -32.9378 203.791 100 49 54
-20.8519 -30.0997 202.855 101 41 59
-18.1088 -30.8866 203.203 88 34 54
-17.2194 -32.1138 203.266 111 74 79
-32.6527 -13.3228 201.636 102 25 59
-26.7298 -24.4839 201.902 96 26 51
-26.0857 -25.6902 201.932 93 21 50
-21.5276 -28.8715 202.411 112 62 72
-17.766 -31.699 202.796 96 68 73
-16.1884 -32.9221 202.956 111 75 66
-33.3068 -12.13 201.2 108 27 60
-24.1276 -26.8641 201.738 90 19 53
-33.6613 -10.1131 200.849 146 100 112
-32.8448 -13.7198 200.78 99 29 52
-29.9341 -18.0605 200.965 107 57 76
-21.4581 -28.8541 201.599 99 35 60
-20.8716 -29.6655 201.639 92 28 48
-36.0164 3.95927 200.827 47 33 31
-33.5651 -12.1254 200.356 106 26 61
-33.0824 -13.7221 200.343 100 32 56
-24.1704 -26.8486 200.913 89 21 49
-30.3713 -17.654 200.113 100 25 62
-22.671 -27.22 200.691 89 18 44
-22.3111 -28.0325 200.7 89 23 47
-21.2759 -28.8349 200.802 92 28 50
-20.8019 -29.6483 200.826 90 25 49
-16.9847 -32.0713 201.229 105 58 74
-24.5688 -26.8321 199.631 92 19 54
-22.6462 -27.6127 199.853 93 21 51
-22.0618 -28.4217 199.892 91 24 50
-18.1464 -30.8305 200.303 89 23 54
-28.9142 -20.8273 198.934 93 20 55
-28.0967 -22.4285 198.965 97 24 58
-20.9793 -29.6266 199.567 88 24 52
-18.168 -30.8227 199.887 89 23 53
-34.8242 -1.196 198.709 126 84 92
-24.5003 -26.8144 198.822 92 21 55
-23.8753 -27.2106 198.886 91 20 54
-21.4068 -29.2147 199.118 94 27 56
-18.2353 -31.2276 199.444 90 23 49
-36.1581 2.78252 198.323 130 139 170
-22.5752 -28.406 198.591 95 24 58
-21.6981 -29.621 198.647 94 23 54
-25.9237 -25.1971 197.894 99 23 52
-34.9955 -1.18075 197.472 128 56 78
-26.9886 -23.5855 197.424 105 47 71
-24.5646 -26.7912 197.586 88 18 48
-22.1015 -28.7915 197.812 94 24 55
-21.9659 -29.6087 197.79 95 23 53
-36.3093 3.21471 196.707 141 148 176
-34.9044 -1.96968 196.636 118 24 57
-31.8766 -15.6091 196.362 104 21 75
-22.6611 -28.375 196.937 106 53 75
-18.1614 -31.5986 197.365 93 39 62
-31.8978 -15.6015 195.955 103 23 56
-30.9776 -17.1867 195.996 101 26 57
-18.2969 -31.592 196.934 103 50 77
-34.9467 -1.95441 195.822 120 30 61
-26.9394 -24.3657 195.76 92 29 70
-19.1374 -30.7701 196.452 107 56 93
-22.3213 -28.7545 195.729 111 47 89
-18.3619 -31.5686 195.685 98 35 65
-22.4764 -28.7408 194.888 104 45 76
-19.9506 -30.3449 195.129 92 24 51
-17.8594 -31.9675 195.315 90 26 49
-34.9748 -0.29188 194.279 138 72 70
-34.8413 -1.09661 194.257 135 62 72
-31.8951 -15.5586 193.93 106 37 83
-26.9816 -23.9266 194.143 108 47 88
-18.1773 -31.5505 194.881 98 39 75
-34.8214 -0.67883 193.875 139 73 71
-34.9036 -1.49892 193.825 138 61 71
-19.2 -30.3188 194.398 90 31 68
-18.6771 -30.724 194.444 92 35 80
-17.6745 -31.9495 194.51 97 49 86
-17.149 -32.3571 194.556 93 45 76
-25.7828 -24.6954 193.438 96 29 70
-23.5281 -27.5069 193.583 99 38 69
-21.2361 -29.1067 193.79 98 35 67
-20.0834 -29.9113 193.894 97 34 71
-18.0143 -31.5245 193.659 95 39 74
-17.7178 -31.9339 193.676 93 40 75
-34.8026 0.164907 192.701 151 100 84
-25.7146 -24.6772 192.629 116 51 72
-23.1677 -27.8932 192.787 97 30 71
-19.2649 -30.2954 193.15 88 28 60
-18.8558 -30.702 193.181 90 29 61
-17.0997 -32.3325 193.318 85 33 58
-24.978 -25.8769 192.252 116 54 88
-21.6386 -29.0887 192.505 97 48 71
-20.6005 -29.8943 192.593 96 45 63
-18.0576 -31.5089 192.825 91 29 54
-17.6469 -31.9171 192.856 86 26 48
-34.6958 0.598927 191.924 153 116 91
-25.8249 -24.2553 191.817 109 48 78
-24.9319 -26.2761 191.829 116 53 82
-23.0987 -27.8757 191.974 110 54 96
-19.1264 -30.6892 192.321 97 43 69
-21.0952 -29.8851 191.709 101 52 92
-18.0327 -31.9049 191.98 86 32 69
7.24141 -37.2574 194.76 98 86 120
-22.1531 -29.0724 191.208 101 42 82
-20.8231 -30.2838 191.31 98 44 86
-19.2832 -30.675 191.475 99 43 80
-28.6537 -22.2703 190.347 106 55 96
-23.0511 -27.8504 190.748 93 35 60
-21.1383 -29.8695 190.879 97 37 77
-34.8886 0.621468 190.28 144 94 73
-24.95 -26.6521 190.169 85 27 52
-22.0837 -29.0551 190.394 97 41 72
-20.8662 -30.2682 190.48 96 37 68
-30.0001 -19.0454 189.525 106 32 80
-29.2268 -21.0515 189.522 111 40 95
-25.9078 -25.0323 189.723 98 31 58
-25.0827 -26.6467 189.744 87 28 60
-35.1625 7.97205 189.779 43 24 29
-34.9362 -2.62171 189.312 112 58 53
-22.5549 -27.817 189.573 104 48 86
-22.2625 -28.2218 189.588 111 57 94
-21.3836 -29.4384 189.633 110 59 83
7.32467 -37.6473 192.582 109 103 148
-29.0255 -21.8415 188.694 100 26 70
-28.7389 -22.2396 188.708 101 33 76
-25.8157 -25.8297 188.878 88 19 55
-20.9309 -30.2449 189.236 90 29 52
-25.7697 -26.2284 188.455 87 19 60
-22.4178 -28.2082 188.747 94 33 73
-21.4267 -29.4228 188.804 94 36 68
-20.4325 -30.6411 188.862 84 25 46
-19.8888 -31.8677 188.867 86 24 50
7.52966 -37.6311 191.738 107 98 148
-34.8812 3.93392 188.405 62 76 61
-22.8438 -27.7978 188.306 97 44 67
-29.1139 -21.0062 187.5 96 19 58
-27.0349 -24.2033 187.587 100 31 67
-25.1897 -26.608 187.685 93 35 78
-21.4018 -29.8167 187.964 95 52 64
-32.1468 -15.4239 187.009 106 40 58
-22.9989 -27.7843 187.466 107 60 88
-20.0447 -30.612 187.667 107 54 79
-19.3414 -31.4265 187.709 88 28 59
-29.0893 -21.3953 186.67 101 32 70
-27.2312 -24.599 186.73 89 19 54
-25.0101 -26.588 186.886 90 30 63
7.43893 -37.5984 189.992 104 98 136
-23.2217 -27.3625 186.638 93 28 54
-21.6917 -29.7966 186.695 98 39 92
-19.2257 -30.9973 186.913 94 38 67
-33.2617 -13.0146 185.779 123 65 108
-30.6532 -18.1805 185.829 118 58 96
-27.2738 -24.5836 185.908 89 18 52
-18.838 -31.3967 186.523 85 25 47
-30.7414 -17.7691 185.432 119 56 98
-29.0189 -22.1813 185.419 112 42 77
-25.1419 -26.1578 185.66 96 39 85
-23.1969 -27.7553 185.8 91 36 58
-22.7694 -28.9768 185.791 90 32 48
-18.9279 -30.9776 186.118 92 33 53
-31.5505 -16.9799 184.973 111 43 89
-27.1171 -24.5551 184.7 92 17 49
-23.3961 -28.1521 184.937 101 49 81
-22.7889 -29.78 184.929 103 54 89
-19.4486 -30.144 185.271 103 54 91
-18.9257 -30.5492 185.309 102 55 93
-18.3336 -31.3669 185.335 102 56 85
-30.8052 -17.7461 184.205 111 37 74
-18.7653 -30.9514 184.893 102 53 86
-34.426 -8.56872 183.828 105 22 60
-19.0372 -30.1222 184.487 97 37 71
-16.7999 -32.5743 184.614 83 25 48
-30.8477 -17.7308 183.388 124 56 96
-22.9003 -28.119 183.757 93 35 61
-34.9918 -7.36617 183.012 109 28 62
-30.4495 -18.9265 182.969 124 60 118
-19.0123 -30.518 183.643 90 28 57
-16.5454 -32.9695 183.79 79 22 46
-30.9992 -17.7196 182.559 112 31 86
-27.3342 -24.5193 182.635 107 40 72
-21.503 -29.3105 183.024 104 53 82
-20.3052 -29.7038 183.131 104 50 77
-18.9201 -30.5087 183.238 89 29 55
-17.506 -32.1435 183.312 80 28 58
-34.9264 -7.34455 182.21 106 26 59
-29.0796 -22.1166 182.154 93 16 54
-19.1693 -30.5038 182.798 91 29 55
-18.053 -31.7281 182.858 81 25 58
-31.7871 -16.5154 181.718 116 53 82
-29.0337 -22.5135 181.733 91 22 60
-21.4333 -29.2932 182.207 102 39 78
-18.8952 -30.9045 182.394 88 23 51
-34.9122 -5.70145 181.473 131 102 92
-21.2741 -29.6935 181.792 95 31 61
-19.3263 -30.4897 181.954 91 28 52
-18.6208 -31.3056 181.989 88 22 58
-30.598 -19.2959 180.902 115 52 98
-23.0972 -27.6638 181.286 99 40 76
-34.297 -7.67829 180.637 109 25 61
-17.9572 -32.1077 181.19 83 22 47
-36.0326 -1.27736 180.34 27 23 32
-30.9085 -17.6652 180.128 106 32 80
-25.7341 -24.8388 180.325 110 51 88
-23.9914 -27.2548 180.391 103 49 85
-19.2092 -30.876 180.705 107 55 77
-34.6632 -7.68185 179.789 114 32 67
-30.8876 -17.2495 179.742 103 33 56
-20.3883 -30.0597 180.21 106 54 93
-18.5936 -31.2731 180.333 97 38 60
-30.2459 -19.2498 179.31 105 32 66
-19.2525 -30.8604 179.872 100 40 64
-34.2638 -9.67167 178.931 104 20 62
-30.7788 -16.8215 178.956 116 65 95
-30.6447 -17.6297 178.934 118 64 98
-29.0975 -21.6438 178.909 109 55 87
-22.7325 -28.4365 179.227 90 24 51
-20.5447 -30.0457 179.368 95 34 58
-18.6369 -31.2574 179.499 89 29 52
-30.1791 -19.2306 178.502 110 37 76
-27.9272 -22.8227 178.562 115 58 97
-22.0117 -28.8268 178.867 97 40 77
-28.8992 -21.2057 177.722 96 29 69
-22.6848 -28.4113 177.996 97 36 75
-31.5683 -15.1933 177.322 110 42 74
-30.1335 -19.2037 177.284 100 30 59
-28.0585 -22.3941 177.341 101 27 60
-26.241 -23.9765 177.442 99 26 60
-23.9859 -26.788 177.532 100 26 62
-31.4136 -15.5848 176.913 118 52 96
-26.1729 -23.9582 176.629 113 57 101
-22.1194 -28.7879 176.794 97 35 55
-20.1532 -30.4034 176.905 100 38 58
-17.8999 -31.6137 177.06 91 31 47
-31.846 -15.9837 175.635 112 29 63
-26.948 -23.5535 175.755 107 44 90
-25.1673 -25.5526 175.831 101 36 72
-20.9435 -29.9865 176.023 111 54 89
-22.184 -28.7645 175.551 108 46 78
-18.0792 -31.5914 175.797 92 36 63
-32.9165 -14.3886 174.794 115 50 105
-20.9867 -29.9709 175.193 100 38 78
-18.9219 -30.7675 175.342 98 37 70
-29.9293 -19.9513 174.416 99 32 67
-17.8941 -31.5733 174.983 88 27 53
-34.7063 6.72606 174.708 119 99 83
-22.4736 -28.7449 174.287 100 42 65
-19.7386 -29.525 174.492 98 41 63
-28.9352 -21.5305 173.619 107 43 77
-26.2118 -23.9012 173.755 118 52 98
-26.0546 -24.2977 173.341 111 39 91
-22.4042 -28.7275 173.468 103 46 83
-19.6001 -29.9191 173.658 106 53 83
-28.758 -21.5083 172.818 98 28 64
-19.2123 -30.3181 173.259 103 43 76
-36.1637 0.515524 172.698 114 35 62
-24.937 -25.8908 172.548 96 26 56
-23.8404 -27.0966 172.59 97 29 57
-22.6721 -28.7156 172.62 94 28 60
-29.5515 -20.2952 171.984 115 50 86
-19.4831 -30.3055 172.406 90 33 57
-33.1692 -15.1425 171.49 114 46 103
-30.8263 -18.7038 171.536 116 52 108
-29.9688 -19.8938 171.558 113 52 98
-25.7394 -24.6657 171.709 103 40 88
-24.2426 -26.2689 171.766 109 57 103
-23.3676 -27.4811 171.788 104 53 84
-19.209 -30.7063 171.997 96 43 60
-34.8964 6.36625 171.822 124 45 66
-23.9726 -26.6649 171.36 112 53 97
-30.188 -19.4776 170.741 97 22 53
-29.5482 -20.677 170.743 100 27 62
-25.4246 -25.4597 170.88 101 32 79
-24.106 -26.6594 170.937 103 38 85
-23.4107 -27.4656 170.961 100 39 79
-34.9132 5.56412 170.973 117 30 65
-30.9571 -18.2767 170.32 96 14 59
-25.8037 -24.6425 170.472 101 32 67
-19.9787 -29.8676 170.724 97 37 57
-19.5014 -30.6857 170.729 100 42 60
-30.8021 -18.6691 169.909 93 18 62
-30.2305 -19.4622 169.922 105 39 89
-29.9197 -20.6723 169.897 113 53 98
-20.5902 -29.0445 170.294 90 22 52
-30.1176 -20.2636 169.49 115 56 94
-25.5129 -24.6188 169.674 116 62 89
-24.1705 -26.6361 169.697 95 23 55
-23.4752 -27.4423 169.719 91 17 54
-20.3622 -29.8568 169.864 97 41 71
-24.9534 -25.4161 169.274 115 60 89
-21.538 -29.0432 169.392 89 26 64
-30.7567 -18.6421 168.689 95 21 62
-30.4038 -19.443 168.684 101 29 71
-25.6671 -24.6061 168.84 105 43 68
-24.684 -25.8113 168.867 105 38 64
-24.1016 -26.6183 168.879 94 21 53
-23.294 -27.4225 168.908 89 18 47
-19.588 -30.6545 169.062 108 61 98
-20.1551 -29.4174 168.653 100 42 83
-34.7165 -2.94876 168.202 105 17 58
-30.9755 -18.2265 167.874 110 47 86
-30.7322 -19.031 167.86 113 48 97
-28.8794 -22.2266 167.871 105 43 80
-22.888 -27.3985 168.114 94 31 64
-18.9258 -31.4555 168.249 98 45 65
-34.6809 -1.30524 167.863 107 19 63
-28.968 -21.8136 167.472 114 59 94
-24.7485 -25.788 167.627 107 43 77
-24.1661 -26.595 167.638 98 37 73
-22.6168 -27.7959 167.705 98 41 73
-20.1302 -29.8129 167.809 95 35 61
-23.896 -26.9913 167.23 97 36 77
-34.9912 0.323992 167.09 132 88 118
-28.1726 -22.1809 166.697 113 46 93
-25.8854 -24.5701 166.769 110 48 89
-24.7237 -26.1806 166.789 109 45 81
-20.1734 -29.7973 166.977 94 36 64
-30.9514 -18.1918 166.245 113 46 101
-28.8366 -20.9694 166.287 108 38 74
-24.8129 -25.7648 166.387 109 40 74
-23.5352 -27.378 166.416 96 29 71
-33.376 -10.9693 165.947 103 21 64
-30.7963 -18.5844 165.832 113 51 100
-28.7479 -20.9582 165.885 107 39 63
-24.252 -26.564 165.984 95 27 63
-22.9277 -27.7689 166.031 95 29 72
