ply
format ascii 1.0
element vertex 1346
property float x
property float y
property float z
property uchar red
property uchar green
property uchar blue
end_header
-2.75144 35.3043 75.6133 17 20 21
-18.025 30.097 74.2017 19 22 21
5.74437 32.4992 76.3128 21 20 26
-5.73172 35.2677 74.8243 42 41 60
-9.0311 33.9484 74.5299 19 22 23
-16.6781 28.7976 73.9797 20 22 22
-17.6786 29.7108 73.8075 19 21 22
5.67686 32.2668 75.8695 20 21 27
-4.70218 35.1985 74.4958 60 69 75
-18.3312 30.2364 73.2414 14 32 30
6.63638 32.085 75.5409 20 20 27
0.613828 32.9547 74.7947 36 28 27
-9.46807 33.8575 73.5796 19 21 23
-18.3413 30.1154 72.7895 13 36 40
5.24927 32.1756 74.9253 20 23 29
-0.616393 34.2174 74.125 23 24 29
6.56517 31.7337 74.6535 22 20 29
1.21589 32.914 73.9645 118 121 130
-9.77087 33.9954 72.6301 20 22 24
-3.20831 34.7432 72.8927 147 155 170
6.20101 31.7566 73.7089 21 23 37
-0.504165 34.0906 72.794 100 109 125
-1.6964 34.6418 72.6234 135 156 169
-11.0517 34.1981 71.5633 19 23 23
-19.5168 29.4601 70.8578 82 115 114
2.58737 32.3486 72.8037 54 70 96
-9.10436 33.9499 71.3509 22 24 26
4.87133 31.8427 72.6477 111 135 139
-3.16205 34.5026 71.5594 121 117 118
-10.4439 34.1569 70.7298 22 23 26
-30.1604 15.1143 69.5151 57 71 75
2.15752 32.2573 71.8563 77 76 88
-0.811079 34.1097 71.4052 151 166 186
-4.69023 34.3675 70.9373 106 122 145
-8.00941 33.8765 70.5769 56 44 41
-11.0249 34.7886 70.1732 21 26 25
-18.9093 29.2981 69.5601 38 65 75
-30.9032 15.5401 68.9311 95 128 141
-3.72559 34.1847 70.6088 105 119 140
2.33988 32.3629 70.9691 142 155 184
1.92023 32.509 70.9119 133 147 178
-11.3951 34.8123 69.2225 21 25 23
-18.7891 29.2892 68.656 39 65 72
-3.67298 34.062 69.7187 152 168 185
-4.64456 34.1265 69.6008 152 169 183
-5.19669 34.0447 69.5402 150 167 181
-10.6281 34.286 68.888 23 24 26
-30.6541 14.7524 67.5834 116 130 156
8.99642 33.3385 70.8 90 116 143
1.48999 32.4178 69.9634 150 168 185
-11.1255 34.1996 68.3806 22 27 26
-15.6884 29.0907 68.1136 20 25 24
-18.5985 29.3973 67.7541 38 67 75
5.98465 33.1846 70.0031 152 167 189
-9.85052 32.8048 68.1508 88 77 66
9.00783 34.0413 69.8675 147 159 181
-9.01348 32.3913 67.817 152 165 164
-10.7712 32.8647 67.5843 54 42 41
-12.3937 33.5679 67.3558 22 24 26
4.17558 33.3035 68.8827 149 164 185
2.79204 33.5132 68.7077 153 167 188
-11.3378 32.6624 67.0728 41 30 21
-12.6748 32.989 66.8974 24 25 29
-15.3002 29.4279 66.7664 23 24 27
-18.4182 29.3839 66.3983 38 64 82
-11.0588 32.165 66.676 103 93 88
1.26796 33.2588 67.6376 157 171 192
-4.59395 32.6962 66.9659 153 171 173
-17.5209 29.8108 65.5658 16 41 50
-18.298 29.375 65.4945 39 68 82
-12.5504 32.0215 65.5942 49 34 30
4.11983 33.6591 67.0581 157 173 193
-14.5182 31.1873 64.9424 25 25 28
-18.3182 29.1319 64.585 41 69 81
-21.7321 26.9034 64.2822 137 151 167
-22.3766 26.6979 64.2148 139 145 159
-24.3184 25.2151 64.0528 102 117 133
-16.2093 29.9674 64.3396 22 26 25
-17.6206 29.33 64.2 16 42 49
-21.9583 27.2849 63.7749 141 144 160
-24.1852 25.3299 63.5992 103 117 136
14.3916 29.4364 67.5895 16 21 19
4.84614 33.8455 66.2369 154 174 189
-4.9102 32.596 65.1201 158 175 198
-16.7148 29.8781 63.8245 18 31 28
-20.399 28.0434 63.4657 135 151 164
-22.3273 27.43 63.2618 121 131 147
-21.766 27.3941 62.8692 125 135 144
-24.7817 25.8593 62.575 124 151 172
14.4483 29.3128 66.7006 18 20 22
7.91079 33.7583 65.7118 154 171 196
6.53285 33.9676 65.5359 154 171 194
5.98924 33.8862 65.4738 152 172 195
-14.3479 31.0536 63.141 31 30 30
-16.6644 29.7524 62.919 18 31 27
-22.1349 27.5391 62.3562 104 117 137
18.1466 24.8941 66.8918 49 53 44
-12.8213 31.796 62.8364 28 28 32
-14.2192 31.1651 62.6946 23 25 26
-22.7904 27.2115 61.8292 72 109 133
14.3922 29.9086 65.7667 20 21 25
-21.084 27.3494 61.5682 123 131 128
-5.94426 32.8994 62.7145 110 139 155
-12.497 32.1336 61.9492 22 24 26
-13.4001 31.472 61.8673 21 23 25
18.3244 24.881 65.5545 51 50 42
9.62912 32.8189 64.1641 149 166 197
6.16151 33.7553 63.7022 43 37 44
5.36449 33.2192 63.6273 32 33 37
-15.9979 29.5862 61.1721 22 25 26
-18.1178 28.6273 60.9533 44 71 79
-21.6077 27.9931 60.5539 126 152 168
-5.82559 32.8907 61.8223 26 43 62
-13.9112 31.2633 60.9001 22 23 27
13.6176 30.7856 63.8353 21 22 26
-11.3503 32.895 60.6917 33 25 23
-19.2006 27.4735 59.9465 90 118 119
-20.1257 26.7961 59.8602 126 144 152
-20.7 27.5675 59.759 104 108 125
16.3896 24.6387 63.9668 16 19 17
5.54121 33.2061 62.2987 20 23 26
-5.9725 32.4228 60.9155 20 22 24
-11.2229 33.0056 60.2479 33 24 22
-20.6422 28.4191 59.2711 93 106 138
13.2558 30.8082 62.89 18 22 43
-11.5862 33.1484 59.7428 23 26 24
23.0163 22.7783 63.9462 29 30 30
-17.4762 29.0695 58.2553 43 73 82
13.371 30.6809 61.5586 19 21 23
-8.02508 31.9577 58.862 21 23 25
-11.0526 32.8729 58.4539 21 26 25
-11.4755 33.0202 58.3962 20 25 24
-18.9039 28.3067 57.6463 125 151 163
-16.7191 29.2631 57.4229 16 44 47
23.1345 22.5264 62.1547 22 24 22
-9.10717 32.5055 57.7984 20 22 24
-18.572 28.6502 56.7542 123 152 167
-7.71252 32.1748 57.5286 18 23 23
23.0101 22.8943 60.7653 36 40 47
3.84694 33.5497 57.5714 19 22 21
3.9012 33.4272 56.6804 17 22 37
-15.7324 29.3173 54.3291 18 28 26
-15.6029 29.4297 53.8829 19 27 25
-29.7658 15.4377 52.5022 117 145 166
-2.62753 34.0958 54.9334 17 19 21
-5.5867 33.3428 54.5803 18 21 22
-30.2126 10.1555 52.1218 80 85 64
-30.0047 14.9365 52.0124 117 145 159
25.1354 19.4837 58.4061 32 32 24
-29.4268 14.9028 51.6123 94 118 126
-30.018 14.8076 51.5399 112 140 154
-3.48052 34.1516 53.9192 18 21 20
-5.20337 33.7916 53.7099 18 22 21
-30.9005 15.8836 50.9244 132 160 177
-29.5179 15.4193 50.6388 110 144 163
-29.6593 10.6422 50.2677 53 58 49
-28.6595 14.0845 50.3082 64 79 73
-30.1106 16.0928 50.0722 130 159 176
-29.759 15.6874 49.6536 129 157 180
-2.44073 32.8949 52.2727 14 25 49
-29.383 10.8852 49.342 84 88 67
-28.5354 14.0753 49.3749 91 102 91
-15.0531 29.511 50.2773 19 27 23
-29.8497 16.2028 48.6825 131 159 177
7.77904 32.1028 52.6994 22 25 29
6.33278 32.198 52.5111 21 22 26
-29.1071 11.1279 48.4173 77 98 112
-28.42 13.1638 48.4605 81 104 121
-28.2614 14.3152 48.4554 87 112 129
-28.8334 16.0158 48.344 117 150 167
-3.23617 32.9458 50.8094 42 57 96
-4.76376 32.9274 50.6128 85 91 105
-15.0717 29.2683 49.3616 19 27 25
-29.7259 16.1936 47.7517 131 158 178
-1.65222 32.9598 50.5605 26 24 20
-28.2207 13.2796 47.5329 118 132 128
-28.1373 14.306 47.5225 123 139 138
-28.7096 16.0066 47.4134 130 156 175
-3.73617 32.7398 49.8419 44 43 34
-4.71118 32.8039 49.7144 53 45 34
-5.62076 32.9828 49.593 31 29 22
-15.0903 29.0254 48.4451 18 28 23
-29.6021 16.1844 46.8209 131 160 179
-7.60325 33.8269 48.8655 23 25 26
-28.5858 15.9975 46.4828 116 149 167
-4.59248 32.7951 48.822 109 117 119
-5.56838 32.8592 48.6939 49 54 51
-29.843 16.452 45.8375 131 160 175
-2.64974 32.548 48.6255 124 127 162
-3.00541 32.8092 48.5746 112 121 156
-28.5368 15.8645 45.5447 112 143 156
-29.0515 15.8938 45.4771 126 158 176
-1.5518 32.5943 48.3145 135 147 183
-4.96158 32.8184 47.8654 86 79 78
-5.87146 32.9973 47.7435 49 57 57
-7.00357 33.6669 47.5844 25 27 22
-27.7523 14.4074 45.198 67 82 70
-29.7943 16.3191 44.8992 129 158 172
-1.97895 32.6218 47.8047 136 148 181
-2.88682 32.8005 47.6831 116 127 159
-3.50535 32.6032 47.6053 128 135 164
-6.52258 33.5158 47.1958 28 31 30
-28.413 15.8553 44.6139 106 140 155
-5.39718 32.7269 46.9014 43 32 23
-6.81827 33.7726 46.6991 21 24 23
-27.6283 14.3982 44.2654 56 73 90
-28.7909 16.0038 44.0884 123 158 176
4.47091 33.1439 47.7377 87 116 133
-1.92577 32.4984 46.9065 135 147 180
-2.83385 32.677 46.7846 118 129 159
-3.87411 32.6264 46.6486 145 145 150
-4.29574 32.7731 46.5911 129 126 126
-6.38131 32.6717 46.3185 25 25 27
-28.729 15.9992 43.623 125 159 178
-29.1688 16.1523 43.563 130 158 178
-6.38847 32.5523 45.8645 24 24 27
-27.5789 14.2646 43.3246 85 114 152
-2.64965 32.7829 45.9 117 127 162
-3.62371 32.847 45.7706 147 147 155
-4.66477 32.7964 45.6339 87 72 73
-6.01953 33.9559 45.4402 22 24 27
-28.5304 16.1138 42.7005 124 157 180
-29.2599 16.667 42.5971 131 159 177
4.64792 33.1308 46.407 89 121 134
-1.68255 32.5999 45.5764 133 144 179
-5.38258 33.2002 45.0799 30 29 31
-27.238 13.7281 42.4268 70 95 136
-27.4548 14.2554 42.3918 75 102 137
8.18572 32.1875 46.435 76 87 88
4.16043 33.0443 45.8919 136 165 194
-3.01796 32.8061 44.9436 127 138 166
-4.47997 32.9023 44.7488 86 71 70
-27.5272 15.7985 41.8899 86 119 142
-28.7715 16.3813 41.7184 128 155 181
-29.6506 16.6873 41.5985 132 159 182
8.18202 32.069 45.9845 64 80 85
-2.53731 32.6551 44.5552 109 122 150
-27.1885 13.5942 41.4847 56 75 105
-27.2561 14.3706 41.4675 62 86 109
-1.57001 32.472 44.2319 104 109 122
-27.8431 15.9424 40.8993 108 144 160
-28.7225 16.2485 40.7794 128 157 175
4.94741 33.2272 44.6401 89 119 133
-2.4187 32.6463 43.6635 70 95 126
5.48878 33.1909 44.2613 59 66 75
-27.0769 13.4556 40.0751 80 98 111
-28.524 16.3629 39.8577 130 158 179
8.187 32.5396 44.176 109 123 130
5.06538 33.2185 43.7531 89 120 132
4.29083 33.624 43.6464 156 151 167
-5.77995 32.7469 42.3052 25 25 26
-27.0013 15.2508 39.5964 95 120 136
-27.0205 14.2232 39.1267 96 118 134
-28.8398 16.5067 38.8674 131 158 175
8.24226 32.4169 43.2819 82 94 90
5.18336 33.2097 42.8662 90 123 132
4.40878 33.6153 42.7597 153 151 167
-5.66111 32.7381 41.4118 24 23 26
-27.7574 15.5479 38.545 121 152 167
-28.1974 15.7011 38.485 128 159 177
28.5863 16.8044 45.6508 31 33 37
-5.5353 32.8486 40.9734 24 23 26
-26.8219 14.3384 38.2033 104 136 165
8.29751 32.294 42.3874 81 92 91
4.52673 33.6065 41.8729 153 150 170
-27.6336 15.5387 37.6138 117 147 169
-28.0736 15.6919 37.5537 127 158 178
-28.8038 16.2457 37.4528 134 157 178
5.7794 33.0508 41.5929 59 69 77
-13.9545 27.8446 38.9442 20 22 24
-26.555 13.6775 37.2923 71 82 114
-26.6979 14.3292 37.2706 75 90 121
8.35283 32.1711 41.4925 81 93 87
4.09843 33.516 40.9124 127 121 125
-13.7682 28.9274 38.5055 19 24 26
-27.6589 15.2815 36.663 111 145 166
-28.4645 15.712 36.5527 128 157 174
5.4783 33.1879 40.6488 90 120 126
-2.66202 33.0146 39.5443 143 142 152
-5.29768 32.831 39.187 24 25 25
-26.5054 13.5435 36.3489 67 88 132
28.1531 17.3167 43.3016 53 58 65
8.53341 32.2765 40.6139 81 92 88
-27.8258 15.6735 35.6912 125 160 178
4.21181 33.389 39.5731 125 121 118
-2.47791 33.1203 38.6617 145 144 156
-5.17887 32.8222 38.2938 22 25 23
-13.4499 29.1481 37.1688 22 24 20
-26.3067 13.6591 35.4252 85 87 98
-28.2039 15.8221 35.1656 130 159 176
-28.5691 16.099 35.1156 131 160 177
8.16971 32.2995 39.6614 112 133 147
6.13751 33.1428 39.3842 59 69 77
-27.7766 15.5404 34.7497 128 159 177
-28.582 15.9707 34.6399 131 160 177
-5.06007 32.8134 37.4006 24 23 26
-13.3858 28.1702 36.2569 21 22 26
-13.2608 29.2561 36.2751 23 26 24
-26.257 13.5251 34.4814 104 117 134
8.28769 32.2908 38.7745 146 162 173
-5.06693 32.6941 36.9447 21 23 25
-27.802 15.2831 33.7973 126 157 175
-28.4581 15.9615 33.7086 132 159 177
-13.1964 28.2786 35.362 21 23 24
-13.1407 29.2472 35.3722 22 24 19
-26.4249 13.9189 33.5085 92 94 98
8.88726 32.2502 37.9537 113 119 137
-27.6858 14.3748 32.8613 119 148 165
-28.6336 15.4565 32.7345 132 159 177
-29.4394 15.8871 32.6251 131 158 176
2.37611 33.0344 36.6077 83 82 49
-13.1451 28.1524 34.4476 20 24 30
-13.0206 29.2383 34.4692 20 26 32
-26.5243 13.5356 32.5428 97 124 159
-28.4307 14.8016 32.2852 131 158 176
-27.7861 13.9918 31.8952 124 151 170
-28.4436 14.6726 31.8077 129 155 177
-29.9815 15.6591 31.6 131 159 180
9.06419 32.2371 36.6236 98 122 182
-26.8413 13.68 31.5486 94 107 109
-29.4892 14.6016 31.1873 133 158 182
-12.9646 28.139 33.0906 19 23 30
-12.8404 29.2249 33.1148 19 26 32
-27.8865 13.6082 30.9276 110 145 160
-28.5444 14.2898 30.8407 127 158 177
25.5399 17.7074 37.9051 14 17 15
-3.76709 33.3194 33.9453 26 25 28
-28.7828 13.7863 30.3284 128 156 173
-29.1492 14.0648 30.2795 129 158 173
-12.9133 28.0127 32.1753 22 22 33
-28.871 13.5318 29.838 129 156 174
-29.7441 14.7414 29.7261 130 159 174
25.115 17.6079 36.9282 15 17 18
-4.42531 33.7184 32.9485 21 23 24
-12.7979 28.9777 31.7391 23 25 28
-26.6737 12.6328 29.6603 84 101 120
-27.5578 12.9405 29.5397 104 132 159
-27.9249 13.2195 29.4909 117 149 168
-29.0346 13.152 29.3355 128 156 176
-26.8293 13.1574 29.1671 78 106 136
-29.6199 14.7322 28.7921 132 159 177
-12.8017 27.8817 30.8071 21 24 23
-12.8843 28.6174 30.8031 24 24 20
-26.5492 12.6236 28.7247 92 106 125
-29.6544 12.7957 28.2916 128 158 173
-29.6437 13.7007 28.3025 129 159 174
24.64 24.1988 35.5586 15 18 14
-12.7691 29.5804 30.3696 25 38 30
-26.1886 13.1194 28.3043 124 132 126
-29.7565 12.41 27.3183 131 158 177
24.4559 24.5694 34.6299 14 19 19
-12.7866 29.3378 29.4447 23 40 47
-12.8277 31.8767 29.471 76 100 105
-13.2743 32.746 28.9617 105 118 132
24.5744 24.5606 33.7394 16 20 23
5.1179 32.0174 31.0943 49 75 87
-12.6665 29.3289 28.5418 25 46 55
-12.6396 31.9835 28.5832 113 138 141
24.6337 24.4354 32.8387 15 22 24
5.23621 32.0086 30.2049 50 74 89
-12.739 28.1169 27.5925 21 28 41
6.42952 31.336 29.9104 18 21 19
-12.913 29.4641 27.1291 69 96 115
-13.2707 29.7294 27.0826 108 135 145
-13.5592 30.1113 27.0479 134 161 173
24.3314 24.5731 31.8906 25 29 27
-12.5497 28.2254 26.6995 18 27 45
-13.5682 29.9902 26.5849 131 161 172
5.05701 32.2562 28.8245 110 135 149
27.6187 20.0157 31.3673 16 18 16
24.029 24.7108 30.9424 27 32 33
22.4053 25.413 30.7235 17 20 17
8.37133 31.8008 28.8369 19 21 23
-13.4225 28.2792 25.654 72 95 120
27.3726 20.3948 30.8831 18 16 17
26.7621 21.1608 30.8106 17 17 17
5.59545 32.1012 27.9926 49 73 87
-25.0478 16.5097 23.2964 120 151 165
22.6429 25.6365 29.8548 17 19 18
-13.8682 28.1843 24.6658 60 63 75
-26.1659 15.421 22.6404 122 155 175
27.1274 20.6512 29.9408 18 19 19
26.0356 21.4463 29.8006 17 17 18
24.5684 24.4347 29.6528 19 21 18
23.4838 25.2232 29.5135 22 22 20
-12.8143 28.117 24.3547 34 34 29
-14.931 27.1513 24.0298 52 44 40
-25.6638 15.2632 22.2347 107 141 158
-27.7307 14.4805 21.9209 130 157 175
-28.9135 14.2893 21.7467 130 157 177
-26.1217 14.3888 21.675 106 140 157
23.241 25.477 28.5771 17 18 18
18.0807 28.9104 27.9102 62 69 70
27.6704 20.3727 28.6443 29 36 32
21.618 26.0581 27.9025 46 48 34
-26.8112 13.9102 20.6132 120 158 176
23.8984 25.5541 27.7672 18 19 20
6.91692 32.0114 25.4634 13 27 44
-12.3524 27.5975 22.5643 42 38 36
-25.7297 13.7184 19.8133 84 115 143
6.55197 32.0343 24.5051 14 37 57
20.1129 27.4665 25.9065 18 21 22
21.613 26.4145 25.6438 19 20 21
6.25017 32.1718 23.5588 77 102 92
3.66118 32.8162 22.7453 32 30 30
30.6358 15.4118 25.7408 22 21 20
27.5348 21.2256 25.4546 24 24 21
8.46869 31.4319 22.9563 19 21 23
19.0226 24.8947 23.8583 19 21 23
-24.3975 14.4093 17.1735 51 82 100
-25.4269 14.4673 17.0241 106 140 156
-26.8983 14.6788 16.8144 129 156 173
6.00326 32.186 21.7106 23 22 24
-26.9101 16.2171 15.9094 125 153 173
6.41515 31.802 20.8527 20 21 21
5.82822 32.5523 20.7901 19 21 21
4.98832 32.8446 20.6755 18 21 19
-23.9141 15.7891 15.8634 83 116 145
8.59165 31.8953 20.2713 20 23 21
6.23982 32.1685 19.9321 19 20 22
5.65333 32.9181 19.8704 19 21 23
-20.0162 20.2522 15.1729 45 59 77
-3.83162 30.1954 17.4589 21 27 32
-20.6065 20.0346 14.6079 83 106 121
-2.07545 29.6005 17.2416 31 30 15
-4.51261 31.5594 16.9489 34 39 36
-11.5863 27.295 15.7422 48 68 108
-19.9656 20.1216 14.2365 96 127 143
-1.78174 30.9022 16.8756 72 84 62
-12.0231 27.3218 15.2161 116 131 149
-21.2088 19.6903 13.5654 131 153 173
-24.2691 18.0978 13.0504 128 155 173
12.1966 31.5376 18.5325 93 123 152
11.3583 31.8295 18.4181 91 123 147
10.3955 31.8928 18.2765 91 123 141
2.88933 31.9106 17.1551 101 134 143
-10.9004 27.3726 14.9237 143 158 167
-13.096 27.144 14.587 141 153 165
22.0265 24.5787 19.2862 137 155 167
15.0676 30.2826 18.4622 142 160 186
12.8474 30.7834 18.1488 143 160 190
-2.37726 31.4188 15.8931 151 174 187
-9.37033 28.1282 14.72 150 164 178
-11.4743 27.1638 14.3681 155 168 181
-12.3163 26.6049 14.2206 154 164 177
-21.5221 19.833 12.583 132 155 173
-22.1033 19.7412 12.4925 129 154 171
-23.5613 18.1817 12.2145 128 155 171
22.627 24.6608 18.9245 145 158 171
21.1185 27.5119 18.8094 150 161 179
17.4004 28.9424 18.3074 145 162 178
12.1911 31.3001 17.6178 155 171 195
-8.56358 29.4106 14.4304 154 169 183
-12.754 26.6316 13.6933 154 162 178
-13.7508 26.6939 13.5461 145 156 170
-24.5222 18.2366 11.6002 128 153 170
23.1034 25.4712 18.5735 144 157 171
-8.0981 30.1053 14.0684 154 170 185
-20.5994 19.3985 11.7634 144 164 179
-23.8026 18.4475 11.2442 128 152 172
19.5573 28.0878 17.6916 152 162 163
17.0988 29.0797 17.3617 129 140 141
12.3091 31.2913 16.7303 160 166 192
-7.83595 30.4496 13.6629 155 170 187
-23.741 18.4429 10.781 127 150 171
23.4543 26.8836 17.7766 147 160 175
21.8945 27.6989 17.5751 150 163 180
17.1579 29.0753 16.9175 87 100 118
9.49503 32.4231 15.9001 130 134 149
3.24998 32.0034 14.9407 139 147 181
-6.94804 30.9937 13.3607 152 170 189
-20.4766 19.3894 10.8403 150 167 183
-21.7126 19.9666 10.6777 129 153 170
20.2753 28.2787 16.9021 156 168 183
15.2405 30.0313 16.2151 104 91 104
12.4272 31.2826 15.8427 141 140 157
24.0514 26.8444 16.9594 151 166 183
21.414 27.49 16.5879 152 164 184
16.4975 29.4738 15.9287 87 87 126
15.9558 29.39 15.8431 92 92 131
9.00616 32.2176 14.9124 68 85 85
6.88635 32.0014 14.5822 75 79 92
4.4025 32.0457 14.2081 70 81 103
-7.38735 30.9007 12.3743 154 169 187
-8.01406 30.7004 12.2708 155 169 187
-21.8792 18.5848 9.65216 137 158 177
-23.8493 17.9385 9.32619 124 152 168
22.5506 27.6551 16.3144 156 168 187
15.3587 30.0225 15.3271 77 76 94
12.1259 31.4198 14.8979 115 119 148
3.07088 32.2516 13.561 97 109 132
-22.0359 18.2129 9.14044 137 155 178
22.4314 27.3044 15.828 156 169 186
21.0525 27.5119 15.6277 156 168 188
20.9916 28.3499 15.6557 156 168 188
1.67347 32.3429 12.8984 141 163 158
-7.33503 30.7758 11.4602 154 168 189
-8.04969 31.3033 11.3751 158 167 188
-22.6306 17.9927 8.56824 128 150 168
-5.66698 30.9079 11.2617 150 171 197
-7.34246 30.6553 10.9953 153 172 199
21.0511 27.2721 14.71 159 168 184
7.12297 31.9839 12.8033 158 175 190
1.01414 32.7421 11.9068 167 179 179
23.2703 26.6522 14.5665 138 154 183
8.96816 21.2368 11.6674 146 132 211
3.81063 32.9124 10.9798 47 32 33
-7.61223 19.8759 8.59882 42 35 40
-10.5374 19.2983 8.12254 34 31 33
8.23343 21.5255 10.6458 53 46 91
-4.616 19.5723 8.57693 18 19 21
-6.11684 19.6614 8.35085 19 20 23
-9.55814 19.9907 7.83865 22 26 25
-10.9102 19.4448 7.60423 20 24 23
6.39021 21.7595 9.91247 19 21 21
-1.35947 19.7517 8.6203 16 15 17
-2.6532 20.202 8.44377 13 16 15
-6.48845 19.8074 7.83417 17 22 21
25.4554 8.41542 11.7122 13 16 14
8.54544 21.8733 9.78851 59 52 102
6.29809 20.5321 9.37427 16 19 23
-4.99435 19.593 7.5867 14 16 17
-5.4946 19.6226 7.51112 14 16 18
-7.361 19.9832 7.24181 20 25 24
-1.6693 19.8928 7.64874 13 16 11
-2.03359 20.1632 7.60643 12 15 11
-6.79919 19.9489 6.85981 18 23 22
-4.80484 19.7047 6.68858 13 16 14
-5.23702 19.8551 6.62961 13 16 14
-7.23922 19.9742 6.32624 19 24 23
-8.81228 19.9428 6.08136 20 23 24
-0.552188 19.8244 6.88711 12 14 13
-10.6049 19.4222 5.30868 19 21 23
7.9315 22.1529 7.86342 16 18 22
-2.34969 20.1795 6.16199 12 15 13
-2.98256 19.9683 6.05244 12 14 15
-5.97971 20.147 5.59699 15 19 19
-22.6948 15.6899 2.76366 73 107 121
-0.56402 19.5746 5.941 12 13 16
-1.62716 19.5132 5.7724 13 15 15
-1.85774 20.0249 5.76448 12 15 14
-2.85458 20.0844 5.61277 12 14 15
-3.78492 20.2643 5.47798 13 16 14
-9.70272 19.868 4.53651 18 21 21
-6.22208 20.409 4.64061 16 21 20
10.375 21.6338 6.83164 19 18 22
-1.96672 20.5268 4.8445 12 14 14
-19.3732 17.408 1.95447 19 25 33
0.745801 19.7426 4.75847 11 13 12
-9.3816 20.0963 3.19619 18 20 22
-12.8187 19.5485 2.62798 17 17 17
-20.4902 17.9784 0.867732 40 61 82
11.4094 21.3231 5.59245 11 13 15
0.138236 20.2741 3.76393 10 13 11
-12.8366 19.2965 1.67248 15 17 15
0.259465 20.2651 2.85254 10 12 12
-11.9149 18.8633 0.85301 14 17 16
-12.7843 19.1659 0.734387 12 15 13
9.29043 19.8474 3.78548 13 15 18
1.24739 20.081 2.53207 12 15 13
2.3007 20.0172 2.22955 10 13 12
2.49275 20.2528 1.80993 10 13 14
-3.60902 20.3695 0.852252 11 13 13
12.4617 22.6011 3.07291 11 14 12
4.46946 20.0097 1.64327 12 15 12
3.54447 20.189 1.50805 11 14 11
-0.688115 21.805 0.939536 11 14 14
2.38097 20.7533 0.895219 11 14 12
1.3895 20.8129 0.741698 10 13 11
14.119 23.5943 2.48063 11 14 12
10.8274 23.9189 1.51898 11 12 15
3.6836 20.9197 -0.278533 10 13 11
12.1608 23.3478 0.774797 13 13 19
11.1838 23.4081 0.622748 16 15 26
14.7117 22.3364 0.654903 11 12 15
13.7466 23.371 0.570587 10 12 13
9.71319 23.376 -0.0745908 14 14 23
14.2316 23.2186 0.178713 9 11 13
16.0466 21.7646 -0.089834 45 41 71
-19.7176 29.4636 75.7293 20 22 24
-20.5545 29.7394 75.6135 20 23 22
-7.43944 34.5179 76.4251 16 19 17
-18.331 29.2374 75.451 19 23 23
-7.91059 34.3462 75.929 15 18 17
-9.49792 33.8317 75.7711 15 18 17
-19.3051 29.0107 74.8928 19 23 22
3.13827 31.3023 76.9682 18 22 20
0.872574 31.3029 76.2473 20 23 22
-8.89985 33.8794 74.9371 17 18 21
-19.0438 29.3863 73.9894 20 24 37
-21.3076 29.6371 73.7058 32 31 43
-6.72903 34.5643 74.7056 29 27 18
-7.83029 34.0991 74.6009 19 19 19
-22.1854 29.6616 73.1438 50 57 70
3.43819 31.6718 75.6287 73 94 99
-19.9606 29.1592 72.9807 84 110 143
-7.05236 34.6375 73.7624 22 22 23
-8.72861 33.8779 73.6043 18 19 20
-22.218 29.2839 72.248 137 147 156
4.5564 31.8925 74.8478 19 29 45
3.11418 31.7452 74.6836 101 133 154
2.67598 31.8196 74.6272 118 147 177
-22.259 29.0321 71.8001 141 152 172
7.4306 33.3668 74.6618 20 21 25
-22.7935 28.7294 71.2955 128 145 177
3.31402 31.9912 73.792 54 72 104
-22.7852 28.603 70.8459 87 104 141
8.41704 33.2176 73.889 18 20 22
5.81447 32.359 73.6216 24 31 38
-23.5697 27.6683 70.3431 48 69 72
-8.44322 33.8754 71.3829 22 20 19
-21.9789 27.9466 70.0615 90 80 78
17.8734 24.9337 74.5427 57 62 75
-21.5258 27.7443 69.6684 130 123 117
-22.0199 27.6935 69.6116 89 80 81
-9.66382 32.7902 70.3874 22 21 21
-10.1029 32.8648 70.3309 19 21 23
-11.0275 32.8903 70.2185 18 20 22
-12.1387 32.421 70.1081 18 20 22
-9.65257 32.6661 69.9426 28 21 19
-10.5772 32.6916 69.83 19 20 21
-11.5487 32.5935 69.7178 18 21 21
-12.4744 32.619 69.6051 18 21 21
-13.5414 32.273 69.4935 19 23 23
-22.4975 27.3886 68.6528 51 61 72
17.5646 24.881 73.1437 45 47 41
-18.8365 28.1226 68.6007 26 43 72
-10.8558 32.8888 68.8822 22 22 23
-11.9202 32.5433 68.77 19 22 22
-12.8931 32.445 68.6572 19 22 23
-21.3927 27.4895 67.8647 128 123 143
-22.4311 27.2611 67.7501 81 86 123
-13.3694 32.2714 68.1547 20 22 24
-15.865 28.1734 68.0428 21 23 26
-18.1798 28.2983 67.7573 17 30 56
-25.2098 24.8927 67.0655 104 119 104
-3.30773 34.1117 68.8349 150 167 183
-8.40816 32.8857 68.2737 147 161 172
-12.8252 32.3202 67.7651 20 22 25
-16.2988 28.1223 67.5358 20 25 25
-22.2656 27.3866 66.8475 119 137 152
-23.5085 25.4302 66.7861 134 148 163
-25.8523 24.3285 66.5526 86 104 99
13.7566 29.6555 70.6497 15 18 18
-4.51405 33.0292 67.8353 148 166 182
-11.0435 31.7722 67.0989 71 60 51
-13.2443 32.1459 66.8157 21 24 23
-16.5788 28.3226 66.5791 21 26 25
-25.6849 24.4555 65.6447 78 103 106
-26.1835 24.4035 65.5865 103 136 149
13.4324 29.729 69.7039 15 17 19
9.83288 32.8182 69.1342 125 144 161
-11.4263 31.8465 66.5959 65 53 45
-21.5477 27.5624 65.5519 146 158 169
9.88976 32.8177 68.6914 132 150 169
-13.5697 32.2197 65.8664 22 24 26
-24.4709 24.8141 64.8545 87 93 86
-25.6696 24.1983 64.7349 70 94 113
-26.5147 24.4786 64.6204 123 154 181
-11.3581 31.7214 65.7027 128 123 131
-12.2386 31.8709 65.5894 57 45 41
9.56696 32.8909 67.7498 122 130 123
2.18825 34.2736 66.7951 157 173 201
-25.5528 24.1973 63.8262 62 79 81
-26.3471 24.6056 63.7129 102 134 145
-13.3977 32.2182 64.5273 33 30 31
-24.4471 24.4289 63.4903 87 87 82
-18.3045 29.0733 63.5977 64 95 130
11.6352 31.6568 66.7006 53 53 46
9.7376 32.8894 66.4216 27 32 37
4.35926 34.7101 65.695 154 163 174
3.44496 34.7358 65.5823 143 151 166
-6.84845 31.9152 64.4323 157 166 170
-13.8173 32.0438 63.5759 30 27 25
-17.7069 29.2487 63.2074 26 48 79
-16.6299 30.6753 62.8294 15 32 56
-23.7698 25.7043 62.1419 90 94 93
9.81018 32.7655 65.5356 60 80 94
3.38817 34.2455 64.6951 61 58 65
-4.08924 32.778 63.8331 112 144 157
-12.775 32.0174 62.7973 26 30 31
-13.111 32.2157 62.2955 21 26 26
-16.6105 30.4244 61.9305 14 32 55
-23.5533 25.9579 61.2392 72 84 103
11.6183 30.9138 64.9226 19 25 39
-21.2158 28.1381 60.9899 123 136 129
-22.8991 26.2631 60.8489 116 129 128
-16.2446 29.848 61.0845 20 28 34
-23.9336 25.9053 60.2744 135 154 167
-24.7324 25.0887 60.2042 136 155 169
-23.229 26.3378 59.8867 140 155 171
18.1369 24.694 64.5745 29 26 19
-18.4797 28.6416 59.9369 119 146 173
-21.2884 27.5049 59.6281 93 98 105
-24.4648 25.4706 59.3031 138 150 135
-13.7818 30.9205 59.9867 20 25 24
-14.365 30.6213 59.9243 20 25 24
-12.7669 32.2126 59.6173 19 24 26
-21.6174 27.5795 58.6684 81 98 109
-23.0047 26.4634 58.5317 135 156 166
14.9225 29.8941 62.2032 15 18 16
-18.2485 28.6396 58.1371 119 144 179
-20.366 28.0591 57.8922 115 127 149
-12.8289 31.5904 58.267 20 25 24
-21.3942 27.7044 57.3172 140 156 164
8.69255 30.3156 60.5161 22 23 27
-11.9575 32.5077 57.8955 19 24 23
13.2596 29.9423 60.6408 16 18 19
12.8617 30.1408 60.5861 16 19 18
-17.0431 28.8648 56.9093 27 46 79
-18.8652 29.0402 56.6784 148 166 183
-19.1535 29.3663 56.1772 151 165 183
1.79351 32.6924 58.2416 55 79 107
-11.3922 32.3076 56.6113 19 21 23
2.24539 32.4943 57.8515 21 35 76
-15.4919 28.7631 55.7344 20 25 24
1.90762 32.6914 57.3534 45 64 76
-13.661 28.4615 55.513 19 21 23
2.00779 32.8142 56.9119 48 44 18
-17.2073 30.1414 54.5753 89 102 98
-27.4913 15.9896 53.6158 109 125 129
-16.6592 30.191 54.1868 40 63 86
-13.7889 28.9122 54.1172 20 23 22
3.93006 32.5153 55.8053 18 34 52
2.92582 32.294 55.6842 82 104 126
-16.5919 30.0648 53.2862 45 56 56
-14.4644 29.3126 53.1117 20 24 26
-16.4384 30.3145 52.8446 36 43 22
-26.2535 20.9845 51.7978 77 92 98
-13.3796 29.5378 52.7874 19 25 23
-14.7544 29.638 52.613 21 23 25
-15.0542 30.0887 52.5669 20 24 26
-26.43 16.7013 51.3918 57 67 58
-26.4198 17.9613 51.3693 60 72 68
-5.49606 32.9665 53.2598 24 20 21
-6.41863 32.9921 53.1435 19 18 21
-16.6696 30.6385 51.8983 54 70 79
-5.4389 32.966 52.8149 32 31 33
-14.5916 29.7622 51.7192 20 23 24
-15.7756 30.3629 51.56 22 29 31
-26.2601 16.832 50.4748 53 56 51
-26.3017 17.9602 50.4501 56 62 61
-6.30429 32.9911 52.2535 25 17 19
-5.8083 32.9161 51.8649 47 37 38
-13.2905 29.1597 50.9807 19 24 22
-14.176 29.3101 50.8668 19 24 23
-15.7081 30.2368 50.6592 24 36 21
-16.1026 30.437 50.6064 48 61 37
-26.235 17.8279 49.5264 86 91 70
-4.82871 32.89 51.5367 127 122 110
-6.23507 32.8666 51.3596 28 20 18
-26.1856 16.567 49.0841 80 90 87
8.70034 32.9508 52.7923 21 22 26
-7.63105 32.7191 50.733 18 19 21
-15.6406 30.1108 49.758 18 35 57
-16.4774 30.386 49.6485 63 86 114
-5.19797 32.8401 50.5864 56 55 53
-26.0672 16.5659 48.1627 108 122 128
-26.0578 17.8264 48.1472 109 123 133
-7.51659 32.718 49.8422 19 20 20
-16.8043 30.4601 48.6946 116 126 119
-9.05202 32.1988 49.201 17 20 18
-25.8883 17.9566 47.2327 97 114 118
11.7416 31.6902 51.3906 19 21 24
10.9486 32.0853 51.2857 21 23 28
-8.46336 32.3714 48.8205 18 21 20
-16.7371 30.3341 47.793 71 96 99
9.13234 32.0121 50.6052 36 58 88
-9.60737 31.6523 48.2292 17 21 19
-14.2624 29.2563 47.6621 21 22 24
-9.99035 31.7266 47.726 18 21 19
-16.7177 30.0828 46.8859 77 75 51
8.89174 32.332 49.6698 112 140 166
-13.7041 29.18 46.8208 20 23 24
-14.0996 29.3807 46.7688 20 22 24
-16.708 29.9571 46.4321 57 55 27
-25.4983 18.3476 45.4105 62 67 48
9.8647 32.3061 49.3432 33 53 66
-8.71967 32.3202 46.9756 18 20 23
-9.69122 32.2218 46.8526 17 21 22
-12.7607 29.0291 46.4857 19 24 23
-25.8162 14.8988 44.9293 54 54 33
-25.5764 20.4574 44.9179 70 89 95
8.60984 32.5284 48.7309 136 143 169
-2.80803 33.0317 47.2715 104 117 121
-16.5927 29.9561 45.5343 41 48 62
-25.3803 18.3466 44.492 49 61 72
9.89623 32.0586 48.4472 32 54 64
-14.2744 29.705 45.3755 19 23 27
-15.5543 30.0556 45.21 28 45 95
-16.0446 30.0056 45.1478 45 64 124
8.6823 32.4043 47.8394 135 144 173
-7.3499 33.0353 45.7872 17 19 20
-9.0334 32.2695 45.576 18 20 22
-13.0776 28.9773 45.076 19 24 23
-13.9162 29.2532 44.9675 20 24 23
-15.4967 30.0551 44.7614 38 57 114
-16.92 30.0303 44.5796 78 95 154
9.17667 32.3295 47.4521 112 141 168
3.80017 32.8515 46.762 146 170 191
-14.1591 29.704 44.478 19 24 30
-14.5067 30.0296 44.4321 17 25 56
-25.2545 18.214 43.1081 86 108 147
-25.1884 20.8449 43.1052 93 120 147
-7.19013 33.1577 44.9022 17 19 22
-14.9389 29.979 43.9209 21 32 75
-15.3814 30.0541 43.864 38 55 111
-16.3141 30.0792 43.7445 67 88 145
4.35191 32.7762 45.9306 116 139 149
-6.20997 33.1316 44.5755 18 21 20
-13.6958 29.3772 43.6259 20 24 24
-25.1364 18.213 42.1893 59 76 112
-25.1218 20.7141 42.1844 69 95 125
10.1812 32.0561 46.2289 26 28 31
9.38896 32.4511 46.1265 45 51 44
3.97124 32.85 45.4304 143 168 185
-15.7085 30.1282 42.9097 46 57 104
23.9763 22.7315 47.5606 16 17 17
-6.00548 33.3773 43.6968 18 21 19
-13.7223 28.9997 42.7101 19 24 23
-14.766 29.9775 42.5749 20 30 55
-25.1793 16.5581 41.2516 52 70 83
-25.0695 18.0809 41.2641 56 75 86
-25.1061 20.4533 41.2568 69 94 109
3.20993 32.9976 44.43 117 113 111
-6.81365 33.4019 42.6884 17 20 18
-13.7015 28.7474 41.7991 20 23 24
-14.7457 29.726 41.6652 23 32 44
-25.1122 16.4253 40.3235 76 89 101
-15.5256 30.001 41.1087 62 73 103
10.4662 32.0536 44.0107 32 54 64
9.15377 32.2765 43.8418 131 144 167
-6.69933 33.4009 41.7986 17 20 18
-13.586 28.7463 40.9001 20 22 24
-15.0254 29.9254 40.7169 43 62 104
3.43803 32.9956 42.6546 114 108 113
-14.5727 29.7245 40.3185 21 37 77
-6.67545 33.1532 40.8962 17 19 20
-13.8664 28.9463 39.9506 19 25 29
-15.843 29.9495 39.6988 90 120 172
-24.8242 16.555 38.4872 98 126 170
-24.7664 17.9467 38.4999 101 130 170
9.76226 32.2007 42.5671 117 146 164
3.07156 32.9459 41.7044 68 75 88
-14.4099 29.8487 39.4275 24 38 63
-12.7703 29.0459 39.1794 20 22 24
-13.8624 29.8983 39.0424 17 25 29
-15.7276 29.9485 38.801 75 72 73
10.9428 31.236 41.8122 19 33 40
9.39743 32.1507 41.6174 138 145 170
3.18564 32.9449 40.8165 67 76 89
-6.06498 33.0772 39.6174 20 20 20
-13.8048 29.8978 38.5938 17 26 29
-14.2946 29.8477 38.5299 20 29 33
-24.6978 16.4216 37.0976 52 67 109
-12.165 29.0952 38.3449 20 22 24
-15.6123 29.9475 37.9032 59 64 73
11.0979 31.3586 40.9299 20 32 40
10.222 31.5073 40.8172 76 100 106
9.47012 32.0264 40.7235 135 143 169
-12.4561 29.4208 37.853 20 22 24
-24.5794 16.4206 36.1759 84 88 114
-24.4201 18.0752 36.2095 86 96 126
-11.4664 29.3953 37.5252 20 22 24
-14.1216 29.8462 37.1836 23 34 11
9.1879 32.2231 39.786 111 123 149
-12.8776 29.2441 36.8837 19 24 23
-14.8539 30.2463 36.6356 72 85 40
-24.4098 16.5514 35.2621 97 99 87
11.3101 31.4806 39.604 18 33 38
10.4343 31.6293 39.4913 74 103 112
-5.26051 31.9358 37.4478 19 21 23
-11.8404 29.3441 36.5633 21 22 26
9.34329 32.3453 38.9053 142 156 175
-1.5514 33.0207 37.4905 76 106 130
-15.8143 29.8949 35.5942 107 106 52
-15.9224 30.8455 35.5906 110 103 55
-24.2403 16.6821 34.3487 104 102 95
11.506 31.7266 38.7295 19 31 39
-12.2147 29.2929 35.601 20 22 24
10.6055 31.6278 38.1591 53 66 85
-5.08863 31.9343 36.11 19 21 23
-6.53052 33.0988 35.9361 17 20 18
-15.699 29.8939 34.6962 60 74 59
-24.122 16.6811 33.4275 62 73 89
11.1414 31.6765 37.7784 26 28 26
-12.1932 29.0408 34.6873 20 25 24
-14.2182 29.9183 34.4339 40 63 58
9.52998 32.2201 37.1235 66 75 70
-11.2963 28.7644 34.3442 20 23 21
-12.2294 28.7892 34.2222 20 22 24
-14.6981 29.7425 33.9122 102 113 79
-15.6314 29.7675 33.7902 127 122 80
-11.6816 28.8391 33.8379 20 23 21
-13.3122 29.5164 33.6341 17 26 32
-23.9396 17.9395 32.0652 98 88 69
12.3915 32.1431 36.5957 21 23 28
10.9977 32.1194 36.4122 78 94 107
-5.37874 33.0711 34.2761 17 20 18
-6.30172 33.0968 34.1552 18 21 19
-15.5637 29.6411 32.8837 38 59 101
11.0138 31.9956 35.9611 87 109 116
9.22204 32.1696 35.7284 66 61 59
-11.2166 28.5114 32.9798 20 22 24
-13.7342 29.3397 32.6625 21 36 70
-14.5726 29.6155 32.5569 53 76 141
12.1495 32.4626 35.6675 22 30 39
-10.7623 28.3098 32.5789 20 22 24
-15.8434 29.8406 31.9368 99 100 131
9.29471 32.0452 34.833 103 116 124
-5.55613 33.3909 32.9006 17 20 18
-13.666 29.2132 31.7556 23 37 47
-14.5522 29.3637 31.6416 74 89 107
-16.2286 29.9153 31.4307 84 89 85
12.1821 32.2153 34.7656 23 23 31
11.5407 31.673 34.6707 22 25 34
-10.9856 28.5094 31.1817 20 23 21
-13.5033 29.3377 30.8657 24 33 13
-14.8798 29.4379 30.6859 75 70 26
-15.3228 29.5132 30.6289 77 72 26
-23.3282 19.8428 29.3794 87 100 106
-5.03562 33.0681 31.6054 17 19 21
-10.9279 28.5089 30.7321 20 22 24
-11.3711 28.5841 30.6751 20 22 24
9.52286 32.0432 33.0571 21 21 29
8.64728 32.1919 32.9445 22 22 31
6.45833 32.5636 32.6628 26 26 32
-13.8309 29.4119 29.9103 57 88 115
-14.7643 29.4369 29.7873 103 132 149
10.5377 32.1407 32.7422 20 21 25
9.14211 32.1171 32.5568 20 20 28
-10.7657 28.6336 29.8421 19 21 22
-11.652 28.7841 29.728 20 22 23
6.13462 32.637 31.7186 18 33 48
4.426 33.0574 31.5017 132 133 127
-2.27478 32.4958 30.6002 17 20 18
-14.6489 29.4359 28.8887 86 88 60
-23.6541 17.1463 27.4103 108 123 145
3.25556 33.5259 30.9062 36 24 26
-10.7435 28.3811 28.9248 19 21 23
-11.6302 28.5316 28.8107 22 21 24
-13.6577 29.4104 28.5627 58 87 83
6.2487 32.636 30.8306 17 32 45
4.23009 33.4998 30.5838 91 81 65
-15.4806 30.6621 27.8946 149 166 181
-23.1866 15.5401 26.4964 145 157 171
5.11949 33.2277 30.244 121 141 149
-11.1181 28.3295 27.9591 19 24 22
6.36278 32.635 29.9427 17 31 49
5.925 32.7093 29.8864 25 44 71
4.34406 33.4988 29.6967 90 80 65
-10.5702 28.3795 27.5759 19 22 21
-23.068 15.539 25.5734 147 160 168
5.23349 33.2267 29.3567 120 141 148
4.50051 33.6207 28.8187 90 84 65
-10.9448 28.3279 26.6099 19 21 22
-23.0003 15.4057 24.6399 149 160 168
-30.1489 8.32695 23.488 129 159 174
6.97169 32.5591 28.6671 23 26 28
5.30519 33.1027 28.4602 116 139 144
-12.5667 28.8802 25.9517 7 34 41
-22.4858 15.3279 24.2368 145 155 168
-28.8097 7.81908 23.176 122 145 157
4.52952 33.3738 27.9132 90 81 66
-10.7358 28.5786 25.7303 20 23 21
-22.8817 15.4047 23.7166 113 126 151
-23.7921 15.5593 23.5995 109 123 137
-29.9753 8.46182 22.5627 128 156 176
-30.7044 7.86 22.4475 129 156 178
6.2523 32.83 27.6759 25 47 66
-1.67181 32.7384 26.6126 19 20 18
-2.33172 32.1947 26.5078 19 20 16
-9.55966 29.0557 25.445 21 22 21
-14.858 28.7527 24.7267 98 90 98
-15.7454 28.9034 24.6125 92 82 99
5.91382 33.0269 27.1852 64 88 93
3.28831 33.4728 26.8474 24 23 27
-8.78243 29.7319 25.1135 21 25 26
-16.1793 28.8524 24.0951 49 38 36
-28.6822 7.68129 21.7593 96 130 155
-29.5531 7.97438 21.6518 124 158 173
-30.5839 7.85894 21.5101 130 157 179
6.80404 32.7546 26.8445 17 31 40
5.57549 33.2237 26.6948 122 142 147
-1.55747 32.7374 25.7226 25 39 57
-2.65657 32.2683 25.5602 26 37 66
-4.19807 31.8729 25.3408 23 39 48
-10.516 28.7028 24.392 28 45 59
-13.855 28.601 23.941 37 56 50
-14.2512 28.8021 23.8943 45 59 45
-15.6298 28.9024 23.7126 33 30 24
-29.9548 8.05229 21.1239 129 157 175
-11.8346 28.8023 23.7611 56 69 49
-12.3249 28.7519 23.6937 49 63 46
-24.4712 14.4415 21.5933 36 51 73
-28.6679 7.40764 20.799 96 132 162
-29.5392 7.70093 20.6917 124 158 176
-30.9793 7.80014 20.5016 130 159 178
5.16735 33.0509 25.7315 131 131 122
3.89693 33.397 25.5724 35 24 25
-1.00431 32.6619 24.8891 70 77 46
-2.58642 32.1435 24.659 70 65 60
-4.08346 31.8719 24.4487 60 61 46
-15.1182 28.7002 22.8592 55 48 40
7.97559 32.9739 25.6551 28 27 33
6.18398 33.1479 25.4201 66 90 94
-11.7191 28.8013 22.8621 46 43 37
-12.747 28.5746 22.716 39 35 30
-13.729 28.4736 22.5804 34 32 27
-23.5382 15.2914 20.8069 31 40 44
-28.5475 7.40658 19.8614 99 133 166
5.2814 33.0499 24.8438 129 131 120
4.49104 33.4446 24.7513 54 45 42
3.57338 33.4703 24.6286 23 23 24
-1.37277 32.6119 23.9323 25 28 26
-2.47191 32.1425 23.7678 20 23 24
-15.4464 28.7745 21.902 24 26 25
7.52686 32.6778 24.6815 24 27 30
6.29798 33.1469 24.5328 65 89 91
-12.5843 28.6994 21.8272 22 22 22
-14.5485 28.4974 21.5552 21 23 23
4.56257 33.3206 23.8537 60 49 48
-4.33886 31.8206 22.5973 17 20 19
-11.0091 28.9759 21.5924 20 22 22
7.16134 32.628 23.7272 27 44 42
-1.86072 32.0664 22.4874 19 19 20
-2.30015 32.141 22.4309 19 19 19
-2.91724 31.72 22.3317 19 19 19
-10.3222 29.4021 21.2442 19 21 23
-11.3477 29.1761 21.0971 19 21 22
-14.3377 28.7481 20.6772 20 23 23
-28.6096 7.89171 17.9637 115 147 165
5.07181 33.1223 23.012 116 115 104
4.19644 33.2709 22.8994 55 47 49
7.23353 32.5036 22.8287 42 53 67
6.35775 32.6523 22.716 71 82 91
5.17119 33.2448 22.5787 80 85 93
-23.8933 14.7029 17.9165 34 52 70
-29.5196 7.77518 16.8828 128 154 176
-30.4974 7.79591 16.7513 128 154 175
8.3745 32.9704 22.5503 24 25 33
-28.4291 7.89012 16.5583 114 147 165
7.22196 32.1325 21.9084 26 25 31
-28.7778 8.10409 16.0432 124 157 175
-29.808 7.98879 15.8988 127 156 174
-30.7857 8.00956 15.767 129 156 173
-23.208 14.7566 16.6004 32 40 47
-27.8468 7.81062 15.6809 99 133 167
-28.6116 8.37551 15.6006 123 156 173
-29.7943 7.71529 14.9356 128 155 171
-23.4263 14.8319 14.6925 41 54 61
-15.0336 24.0985 15.7913 19 30 53
-7.80918 30.6719 16.6224 31 34 20
-23.9169 14.5101 13.6697 108 135 149
-15.2958 26.8725 14.9634 116 127 152
-2.52336 32.036 16.5006 101 135 145
-13.5989 26.1887 14.7031 137 152 168
-1.98223 32.0848 16.1234 145 169 183
-10.9598 28.037 14.6953 153 173 190
15.4976 30.0438 17.9652 145 159 179
-12.1662 27.1772 14.0289 159 172 187
-16.1087 26.7687 13.468 151 163 175
4.62703 32.0298 16.1207 156 170 183
-7.20227 31.541 14.4722 159 176 196
-15.4611 27.0728 13.1124 154 170 181
4.28814 32.2274 15.6316 145 168 182
-8.88034 30.6443 13.7408 160 175 193
19.5402 29.1229 17.1146 140 145 148
-7.13298 31.4156 13.5657 159 175 196
-26.7682 12.36 9.86977 127 154 172
-25.8957 11.9357 9.4944 133 154 172
13.832 31.1571 15.5313 65 69 96
-15.3729 26.6905 11.2659 160 176 188
-24.9706 11.6452 9.13303 149 162 178
-26.8052 11.9567 8.89697 129 150 172
-16.0976 25.8763 10.6616 159 174 189
-25.7762 11.9347 8.56437 132 154 174
23.2026 25.2425 15.5927 142 155 169
16.3765 30.0898 14.919 114 131 113
13.4675 31.1067 14.5737 65 75 110
20.5487 28.473 14.9519 142 157 171
17.7497 29.8659 14.6434 131 152 169
-15.4869 25.9267 9.82759 159 174 208
-27.5957 11.9768 7.36876 126 151 175
-25.0349 12.1234 7.25797 102 133 158
5.78988 21.519 11.5982 163 176 245
-4.21314 31.9076 10.8142 145 165 189
-25.788 12.5463 6.70512 120 150 172
0.419457 31.6562 10.9875 107 104 144
5.45946 21.5938 10.6343 114 81 132
21.7417 13.079 11.9213 15 17 19
18.7841 14.273 11.5825 18 20 22
-10.7098 18.7282 7.75414 23 29 31
17.671 14.8952 10.5354 15 17 19
-10.6871 18.4663 6.80949 21 26 27
17.1977 14.7089 9.99277 15 18 16
5.24549 21.6677 8.76419 89 77 154
-4.03212 18.1759 7.25246 14 17 13
-9.58361 18.7038 6.51213 16 20 20
-15.3097 16.1959 5.55697 20 19 20
20.7027 13.5702 9.94396 17 20 18
-10.9734 18.6724 5.85062 21 26 25
5.40512 21.7951 7.87215 77 69 131
4.51162 21.9468 7.75718 29 28 51
-3.01298 18.0217 6.4541 14 16 18
-4.41141 18.1209 6.26527 13 16 15
-7.83188 19.2542 5.86071 14 15 15
-9.51324 18.5724 5.58211 15 19 19
-15.387 15.6674 4.57514 18 21 19
20.249 13.2508 8.92834 17 20 18
19.7574 13.1957 8.85605 15 21 18
6.44268 21.8994 7.56278 64 57 109
-3.81011 18.3047 5.89578 13 15 17
-7.01173 18.7102 5.47483 13 14 13
-2.80442 18.2814 5.56965 12 15 13
-4.79087 18.0661 5.27759 13 16 14
-6.36296 19.0237 5.12088 11 14 11
-7.80791 18.993 4.91675 14 15 14
-9.89421 18.5175 4.59355 17 19 21
-15.9192 15.215 3.53288 16 19 18
19.4234 13.2713 7.88201 14 17 15
-4.87028 17.6738 4.77467 13 15 15
-5.58797 18.3491 4.71929 12 15 13
-19.4431 14.6961 2.53539 21 21 20
20.877 13.1726 7.61287 16 18 19
-2.55061 18.671 4.70123 11 13 15
-6.33828 18.7624 4.17657 12 15 13
-8.77977 18.6241 3.82505 13 15 14
-9.82388 18.386 3.66262 17 20 21
-10.3228 18.3321 3.58906 19 23 23
-15.7517 15.3462 2.62634 17 20 18
19.2105 13.742 6.95198 15 15 15
18.5103 14.5522 6.90917 14 14 14
5.37895 22.2531 5.59388 15 16 19
-7.32086 18.5241 3.55714 13 14 13
-12.4538 17.5924 2.77331 18 20 22
-22.5139 15.2367 1.20084 33 54 68
20.5831 13.3799 6.65381 15 16 15
-4.69385 17.6723 3.40144 13 14 13
-15.5352 15.6094 1.73625 17 19 20
-21.847 15.5561 0.84623 28 39 51
-22.4038 15.3686 0.755063 33 54 68
0.145524 19.0673 3.71339 15 16 17
-1.29354 19.0366 3.50897 11 14 12
-2.2839 18.9295 3.36227 11 14 12
-7.79466 18.2083 2.53715 11 14 12
-19.511 15.1689 0.677414 21 20 17
-20.4217 15.3236 0.560242 21 19 20
6.36049 21.8434 4.32032 13 14 14
-10.8243 17.6223 1.60339 18 22 23
-15.4167 15.6083 0.814556 16 18 20
-18.342 15.5431 0.398349 19 20 17
6.33278 21.5862 3.83687 11 14 12
1.20643 19.0433 2.93269 11 13 15
-0.6366 19.219 2.68571 11 14 12
-1.58102 19.2418 2.55434 10 13 11
-6.91404 17.662 1.69005 13 13 13
-12.6026 16.5402 0.808519 20 21 24
-14.3999 15.5855 0.486978 17 19 21
-16.6223 16.1032 0.211079 14 19 18
5.74445 19.6524 3.15247 11 14 13
4.09349 18.9743 2.87059 11 14 13
-7.26019 17.8689 1.18991 12 15 12
-9.70728 17.7294 0.834831 16 20 22
-10.8493 17.2282 0.63751 20 23 26
-11.4453 16.9114 0.530541 20 24 26
0.379861 19.0652 1.88944 13 15 17
-7.65295 17.9451 0.673843 11 14 11
-8.15144 17.8911 0.599544 11 14 12
4.16684 18.8435 1.9437 13 14 18
1.42653 19.1715 1.58094 13 15 17
-6.64438 17.9218 0.348347 12 14 11
-7.50061 18.2057 0.248439 11 14 12
-0.0421443 18.8807 0.887498 13 13 15
-0.941866 19.0335 0.771731 12 13 12
-1.79638 19.3162 0.672083 11 12 11
3.02395 19.3307 0.891024 18 20 25
2.03732 19.224 0.743315 15 17 19
1.13868 19.3766 0.627687 14 17 15
4.56059 19.4901 0.657218 14 15 19
11.8036 24.0954 1.57699 10 12 14
9.28021 24.8013 0.815317 12 13 15
10.795 24.955 0.584213 9 12 11
8.89405 24.8762 0.307921 15 15 24
12.0186 24.2209 0.241552 11 12 14
11.5745 24.2963 0.184409 10 12 14
15.1385 23.1824 -0.774574 14 14 29
-8.58843 33.8163 76.7946 17 19 21
-20.1327 30.4474 75.7353 18 23 23
-19.9674 30.6904 74.8275 20 22 26
-4.14122 35.0606 75.857 19 20 24
-8.48835 33.5376 75.4739 16 20 20
-3.98486 35.2992 74.9576 22 24 32
-19.5159 30.0052 73.5681 33 54 76
-20.3806 30.1646 73.4572 67 86 125
-25.5349 25.4603 72.7552 112 123 141
-27.6345 24.3328 72.5967 100 106 103
-26.5795 24.6912 72.2326 139 152 158
-16.3444 29.3583 72.6147 16 21 20
-27.4963 24.4494 71.6857 136 150 164
-15.8441 29.3355 72.2188 16 19 20
-19.0415 29.1807 71.8629 21 49 60
-20.8347 29.2406 71.653 151 170 182
-24.5428 26.9979 71.3857 129 145 165
-26.4741 24.6755 71.3279 137 150 173
-15.7919 29.3277 71.7705 16 18 20
-16.6583 29.4875 71.66 17 19 21
-24.4586 27.121 70.9298 80 99 144
-26.9385 24.4185 70.8335 111 124 158
14.934 24.2095 75.1948 14 17 15
-20.761 29.0952 70.7614 152 166 174
15.5722 24.9773 74.7576 14 17 15
-15.6874 29.3121 70.8739 17 19 21
-16.1355 29.3271 70.8214 17 19 21
8.9459 33.0233 72.9983 16 20 19
-19.6986 29.3094 69.9586 108 142 153
-22.5749 28.6192 69.6747 57 47 59
-23.2435 27.7213 69.6583 31 32 38
-24.2695 27.2284 69.5737 53 80 92
-26.1986 24.9081 69.5081 143 145 141
0.97333 32.8916 71.1888 137 156 178
-12.0841 34.6138 69.5757 17 19 21
-22.564 28.2126 68.7915 54 54 75
-23.683 27.3285 68.721 68 93 118
-27.3229 23.5998 68.5474 110 107 112
-29.5664 21.9315 68.399 97 127 140
15.197 24.1702 72.9368 14 17 15
8.21243 33.0298 71.5603 27 39 53
-26.7521 23.8418 68.1375 110 118 116
-1.74925 34.3845 69.8775 146 160 183
-12.8681 34.6281 68.5839 17 20 19
-19.5506 29.0184 68.1746 103 139 148
-23.5466 27.4437 67.816 118 145 159
-29.4605 21.9156 67.4898 103 130 139
-24.0706 26.9274 67.3318 147 166 173
-13.8829 33.6219 67.6292 17 19 21
-19.446 29.0028 67.2774 109 142 161
-23.5048 27.1664 66.9251 144 164 180
-21.8531 28.1586 66.5973 138 153 167
-24.1241 26.256 66.4531 151 164 160
5.97795 33.7113 68.5559 132 148 163
-21.7795 28.0126 65.7028 153 169 187
-22.2912 27.7665 65.6586 151 166 183
3.90899 34.2876 67.8332 144 156 174
-15.4725 29.6305 65.8773 19 21 20
-23.4842 26.3486 65.1489 158 163 160
6.52535 33.681 67.7196 96 109 132
-3.45237 32.9856 66.6114 158 170 194
-21.5507 28.5183 64.7878 157 174 193
3.10047 34.1745 66.8464 148 161 179
-2.64252 32.3073 66.2922 156 170 195
-2.9567 32.6991 65.782 158 171 196
-21.8017 28.908 63.8258 159 173 194
6.70464 33.7854 66.3829 126 140 158
-22.7292 26.6958 63.3871 148 161 184
2.86187 34.4208 65.4547 127 136 155
-21.6661 29.0225 62.9248 151 161 162
-25.8927 24.6733 62.6767 115 123 120
-17.0102 29.3843 62.9868 18 24 32
4.76334 34.4733 64.7712 118 124 141
5.65304 34.1814 64.4393 119 116 115
-15.4143 29.9719 62.2307 17 23 20
-19.6852 29.0691 61.7856 157 174 193
-21.0609 28.9841 61.6314 156 160 180
-25.8313 24.2532 61.3296 81 102 128
-26.9963 23.2234 61.2493 88 115 132
-27.515 22.973 61.2027 112 139 153
-28.0012 22.8552 61.1528 129 154 165
4.3988 34.3455 63.836 34 31 37
3.4624 34.1204 63.7397 28 27 33
-17.3314 29.2461 61.593 19 29 35
-27.9812 22.7144 60.7021 141 156 166
-20.0902 28.8084 60.8422 154 175 196
-22.6451 27.5799 60.6099 131 159 182
-25.8872 23.5754 60.4395 148 165 179
-26.2429 23.988 60.3775 147 163 180
-14.869 29.6745 60.9463 18 20 21
-17.2569 29.1007 60.6994 18 30 33
-19.0801 29.0307 60.4925 142 174 190
-27.9412 22.4324 59.8001 118 137 139
4.45558 33.8127 62.519 22 24 28
3.22363 34.3668 62.3495 22 25 31
-22.5091 27.6949 59.7075 105 130 150
-25.7171 23.8247 59.5277 155 158 165
-26.1698 23.8398 59.4747 147 140 139
-26.9153 22.6604 59.4467 118 115 108
6.58182 32.9644 62.3552 19 21 22
-18.9756 29.0151 59.5955 148 176 193
-21.3717 28.4396 59.3467 52 60 80
-27.8682 22.2835 58.8946 78 94 104
10.7074 30.7532 62.4859 83 86 79
6.09221 32.4594 61.8717 18 20 22
4.50988 33.542 61.6374 21 22 26
-3.82744 32.1456 60.741 25 25 33
-12.5916 33.0841 59.6842 18 20 22
-20.3603 28.6621 58.9974 143 133 125
5.52273 33.8873 61.2877 19 21 23
-3.14499 33.0201 60.327 27 25 34
-28.3813 21.6161 57.9452 112 144 158
4.12 33.286 60.703 23 23 28
-9.73895 33.0997 58.6589 18 20 22
4.2975 33.6537 59.8057 23 23 30
-12.8577 32.94 57.8542 16 19 17
-2.5193 32.8463 58.6021 24 24 32
-19.1712 28.7232 56.8562 153 173 190
-21.6618 27.7558 56.6103 154 172 185
4.37636 33.5105 58.92 23 23 30
-7.77695 33.145 57.5301 19 20 24
-8.63855 33.3025 57.4237 18 19 23
-19.9331 28.8677 55.8518 161 178 198
-29.4051 14.2487 55.3682 142 157 168
5.24584 32.8263 58.1476 21 21 27
4.3814 32.9839 58.0411 23 23 31
-19.3107 29.3645 55.4484 153 177 195
-29.8457 14.119 54.8553 138 156 168
-28.2766 14.6127 54.5497 141 145 136
-30.6266 12.6142 54.3582 136 147 147
-15.7406 28.7094 54.9784 19 21 23
-18.3102 29.3189 54.6569 107 118 95
-29.2241 14.0795 53.5269 78 99 107
-30.4509 12.8737 53.4314 89 110 125
17.836 23.8809 58.1396 16 17 15
-17.7879 29.1585 53.8144 66 98 128
-18.6236 29.4481 53.7066 86 112 143
-28.7099 14.0561 53.1201 82 99 106
17.4372 23.8881 57.6352 15 18 15
-29.1504 13.9264 52.6065 79 82 72
-30.9414 12.3217 52.4584 108 120 115
-17.6534 29.2728 52.9165 48 52 25
17.5424 23.8724 56.732 16 17 17
5.26468 33.0352 54.5344 20 22 24
-2.52336 34.3231 53.5871 26 25 33
17.1742 23.7396 55.7778 14 17 15
-15.7048 29.1895 51.7817 16 22 24
-17.0786 29.1046 51.6253 33 43 46
-18.3625 29.4091 51.4662 54 59 60
-2.88976 34.1951 52.6489 25 43 83
-30.7063 12.1435 50.1478 101 112 101
17.2795 23.7239 54.8744 14 17 16
-17.8403 29.2488 50.6231 86 96 52
-18.2883 29.2638 50.5706 93 95 49
5.49621 33.132 52.7551 21 24 30
-1.19325 32.9636 51.5331 32 30 40
-17.7359 29.2332 49.7267 73 99 123
17.9107 23.8174 53.5707 17 17 17
-18.1015 29.3701 49.2257 110 130 143
