ply
format ascii 1.0
element vertex 1291
property float x
property float y
property float z
property uchar red
property uchar green
property uchar blue
end_header
-20.5104 25.5148 67.8574 158 194 227
-22.5231 22.4966 67.7795 164 184 221
-25.5058 18.7983 67.6591 119 160 210
-27.53 16.1252 67.5784 146 177 202
-11.7895 29.6961 67.8021 120 152 221
-12.2267 29.7751 67.7806 120 150 222
-14.9502 28.6724 67.6557 129 167 212
-15.8508 28.4359 67.6137 164 194 221
-16.7885 27.6715 67.5728 161 184 216
-17.2535 27.3548 67.5522 152 167 208
-19.5851 25.7665 67.4488 131 170 218
-23.0175 21.6498 67.3065 164 169 207
-24.4581 20.4106 67.244 64 76 132
-26.5073 17.3416 67.1624 145 180 200
-1.98996 30.467 67.8197 91 109 162
-21.5314 23.3004 66.9155 163 192 220
-25.4885 18.5533 66.7479 89 104 141
-27.4898 16.1526 66.6631 134 137 161
-11.7342 29.9854 66.9054 100 117 154
-15.8025 28.5945 66.7159 166 191 210
-19.5356 25.9263 66.5475 130 149 190
-22.5057 21.9993 66.4205 162 189 220
-26.4323 17.7788 66.2489 135 156 199
12.2531 29.0125 67.6063 124 145 172
-14.8737 28.9759 66.3095 165 195 234
-20.9808 24.1831 66.0323 162 187 223
-23.4517 21.0981 65.9237 152 180 222
-25.4598 18.4445 65.8359 129 162 204
-14.4169 28.9101 65.8819 167 193 233
-19.4961 25.9533 65.6463 162 189 223
-23.4426 20.9766 65.4694 163 185 219
-25.4652 17.9263 64.9225 152 190 227
-19.4565 25.9803 64.7452 129 156 203
-22.7514 23.1027 63.6836 46 68 137
-14.8337 27.8704 63.6124 49 68 136
-21.3414 23.8104 63.2979 46 63 131
-20.8317 24.4114 62.8703 49 68 135
-21.7604 23.9051 62.8252 43 64 137
-22.7117 23.1298 62.7784 40 66 139
-12.9666 28.7664 62.8023 47 70 143
-14.8116 27.6331 62.7117 62 97 185
-16.1519 27.4756 62.6481 72 94 149
-23.6019 22.9036 62.2822 59 83 132
-20.3231 24.7581 61.9902 127 132 177
-22.2223 23.2098 61.8946 48 69 136
-23.143 22.8358 61.8498 72 101 151
-16.5774 27.1856 61.7253 154 186 216
-17.9562 26.4979 61.6573 123 137 189
-24.1435 21.2632 61.3413 135 168 215
-24.6278 20.805 61.3163 136 157 198
-25.6441 19.3439 61.2614 112 140 198
10.6812 29.0828 62.5601 56 71 133
9.7881 29.1098 62.5185 57 81 145
-18.8893 25.6092 61.1571 55 86 167
-22.2035 22.9686 60.9869 42 64 136
8.05633 30.4951 61.9949 98 128 182
-11.9795 29.1882 61.0512 48 70 144
-17.9071 26.6575 60.7579 72 79 146
-24.1146 21.1554 60.4319 129 157 203
-24.5879 20.8322 60.4077 123 135 172
-25.5814 19.6427 60.3535 67 80 150
10.2728 29.0572 61.6369 47 65 134
9.38584 29.3484 61.5977 47 66 135
-18.8496 25.6363 60.2552 47 66 139
-9.2061 30.5791 60.2919 171 200 243
-24.548 20.8594 59.4991 124 137 175
-25.0105 20.6712 59.4761 91 102 151
-25.53 19.8057 59.4448 68 79 150
9.87608 29.56 60.719 47 64 135
8.11891 30.6669 60.6474 45 70 135
7.23284 30.8248 60.6078 82 119 175
-18.81 25.6633 59.3532 46 66 139
-20.7338 23.7175 59.2464 43 61 134
-25.985 19.4948 58.9648 56 72 138
-26.9833 18.3002 58.9078 99 126 169
-20.1843 24.8528 58.8296 44 63 135
-24.5081 20.8866 58.5905 123 136 173
8.60817 30.8777 59.7712 46 65 131
-18.7704 25.6903 58.4512 47 66 136
-20.7042 23.6107 58.3398 45 64 132
-26.9432 18.3276 57.9955 100 122 167
-24.4793 20.7787 57.6799 123 137 175
-25.925 19.5357 57.599 57 71 141
8.2111 31.2459 58.8565 45 64 136
6.43394 31.2985 58.7754 109 143 184
-20.1348 24.76 57.473 80 95 163
-20.6543 23.7717 57.437 67 76 145
-7.76008 30.6855 57.6657 103 127 196
-8.65029 30.581 57.6235 93 136 197
-18.711 25.7308 57.0983 96 145 213
-25.9079 19.2914 56.6839 64 78 149
6.91571 31.2467 57.8968 66 97 153
-3.27142 31.6141 57.4351 124 119 207
-10.4416 29.8605 57.0823 135 141 185
-18.6912 25.7444 56.6473 114 137 188
-20.6247 23.6649 56.5299 77 86 151
-24.4194 20.8195 56.3167 125 147 203
-24.938 19.9542 56.2809 93 120 176
8.71324 31.2075 57.5283 44 64 128
-7.72774 30.5814 56.7674 68 92 172
-17.7094 26.7924 56.2555 93 97 145
-20.0653 24.934 56.1205 94 109 182
-22.5193 21.9896 55.9652 36 69 142
-25.8679 19.3187 55.7729 111 134 162
-10.4099 29.7561 56.183 146 152 196
-21.4943 23.4524 55.5798 43 64 134
-24.3794 20.8467 55.4078 143 166 189
-24.898 19.9815 55.3708 134 157 176
8.32608 31.9681 56.6225 44 64 135
7.42788 31.6015 56.5756 44 70 136
-6.79115 30.8438 55.9158 109 119 184
-7.68837 30.6082 55.8711 53 80 162
-17.6698 26.8194 55.355 69 76 147
-20.5651 23.7056 55.1725 50 67 142
-24.8668 20.1306 54.9185 108 127 159
-25.8279 19.346 54.8619 121 143 191
-10.3858 29.5201 55.2807 154 163 206
-19.06 25.7458 54.8221 44 64 137
-20.9947 23.6664 54.6987 42 61 134
8.36549 31.9949 55.7254 43 65 132
-7.67 30.2417 54.9669 51 73 165
-9.45951 29.9011 54.8796 144 180 212
-10.7886 29.8753 54.8189 109 115 167
-21.4244 23.6271 54.2249 43 61 131
-19.4782 25.5872 53.896 42 62 132
-21.8957 23.0515 53.7392 41 63 132
-22.3773 22.5957 53.7089 35 67 142
-24.7845 20.4424 53.5597 85 99 140
-10.757 29.7709 53.9191 123 129 182
-20.4251 24.5621 53.381 44 63 128
-20.9147 23.9747 53.3474 44 63 128
-19.9165 25.162 52.9631 45 65 129
-21.8559 23.0786 52.8334 42 62 129
-13.9047 28.378 52.8487 44 66 148
-14.8063 28.1412 52.8032 54 92 163
-20.3954 24.4557 52.4741 56 77 136
-20.8851 23.868 52.4396 54 73 135
-24.6912 20.889 52.2056 87 96 141
-10.7211 29.4169 52.5638 147 154 204
-12.5293 28.8124 52.4694 52 64 143
-17.9881 26.7287 52.1788 57 65 122
-21.3147 23.8288 51.9659 51 65 131
-13.8652 28.405 51.9499 42 67 154
-14.7582 28.3001 51.9076 62 101 168
-19.867 25.0692 51.6054 101 117 157
-20.3557 24.4827 51.5702 91 101 144
-11.5656 29.4706 51.6272 89 106 189
-17.4918 26.9408 51.3028 125 150 206
-23.6413 22.1149 50.9145 131 165 223
-24.1578 21.253 50.8711 128 147 203
-10.6696 29.3257 51.2136 114 146 230
-17.9477 26.5039 50.8204 101 139 221
-19.3591 25.4155 50.731 102 135 198
-20.7752 24.3235 50.6413 51 68 127
-11.5182 29.6289 50.7333 69 89 170
-12.8884 28.9456 50.6552 55 73 152
-14.6816 28.6042 50.5668 65 83 164
-24.1069 21.4153 49.9666 63 82 149
-10.6379 29.2211 50.3119 53 70 142
-17.9176 26.3982 49.9154 52 66 136
-19.7678 25.3899 49.8071 48 63 133
-21.1845 24.2978 49.7159 43 60 131
-23.5056 23.0964 49.5816 48 64 128
-20.6953 24.6312 49.2932 50 61 119
-20.7059 24.2439 48.829 71 89 133
-22.1059 23.4161 48.7443 73 90 133
-12.1463 29.1998 43.9401 179 201 236
-13.9564 28.5948 43.8396 169 200 233
-14.858 28.358 43.792 171 198 233
-11.2029 29.844 43.5548 175 203 233
-13.9169 28.6218 42.9408 171 196 227
-14.8272 28.253 42.8875 172 198 228
-8.48189 30.3162 42.7899 173 200 244
-9.81126 30.2904 42.732 170 201 243
-10.7332 29.6604 42.6675 170 201 247
-11.641 29.2925 42.6141 160 195 243
-7.54303 30.9587 42.406 146 183 242
8.46215 31.1532 42.6462 122 127 170
-7.98269 30.6577 41.9253 161 178 240
-8.86624 30.6842 41.8888 111 133 191
-10.6938 29.6873 41.7698 136 144 204
-11.1319 29.7663 41.7544 96 103 162
-14.3041 28.6097 41.5715 103 143 189
-12.4904 28.9647 41.2127 126 147 195
-13.3747 28.9916 41.1763 70 95 163
8.50164 31.1801 41.7472 107 111 153
-8.83414 30.58 40.9864 97 120 179
-10.6543 29.7142 40.872 120 126 195
-12.9253 28.794 40.7362 92 113 164
-13.8351 28.4253 40.6818 58 87 155
-14.2732 28.5048 40.6667 90 131 188
-7.93068 30.5669 40.5743 155 174 234
8.5379 31.0757 40.8423 102 113 150
-10.6226 29.6096 39.9681 111 121 172
-11.5385 29.11 39.9072 71 95 139
-12.9023 28.5572 39.825 74 100 148
-13.8126 28.1882 39.7701 57 92 153
-7.89128 30.5938 39.6774 156 175 235
-8.78233 30.4891 39.6351 97 121 180
-11.9731 28.9393 39.4304 72 95 147
-14.2311 28.2812 39.3055 89 130 187
-14.6953 27.9645 39.2716 139 181 236
-12.8546 28.716 38.9322 78 102 151
-13.7646 28.3471 38.877 68 102 159
8.1538 31.195 39.4785 86 105 153
-7.85188 30.6207 38.7805 135 152 221
-8.74293 30.516 38.7382 85 114 175
-10.5711 29.5184 38.6147 101 118 167
-11.4793 29.1504 38.5593 105 128 177
-11.9337 28.9662 38.5316 81 104 156
-14.6557 27.9915 38.3717 137 173 231
-7.81248 30.6475 37.8836 82 116 179
-8.71078 30.4117 37.8346 105 140 190
-10.5317 29.5454 37.7165 118 144 184
-12.8035 28.6245 37.577 135 161 202
-13.2586 28.44 37.549 135 166 206
-15.5191 27.7812 37.4227 169 202 232
8.20973 31.1041 38.1234 136 167 207
-11.428 29.059 37.2046 150 186 233
-14.158 27.9522 37.0363 145 183 218
-15.5082 27.6623 36.9657 171 202 231
-8.22575 30.4909 36.9587 180 209 247
-10.4999 29.4407 36.8114 177 206 237
-12.7805 28.3875 36.6638 177 202 238
-14.6027 27.6486 36.551 175 201 230
8.25252 31.2623 37.231 163 184 218
-7.30095 30.8712 36.5663 183 210 245
-11.3885 29.0859 36.3058 177 206 234
-11.851 28.7699 36.2705 176 205 236
-13.2076 28.3485 36.1928 174 203 234
-10.4605 29.4676 35.9131 182 208 238
-12.7246 28.6784 35.7785 175 202 236
-13.6516 28.0452 35.7074 171 202 234
-14.5544 27.8079 35.6578 174 201 235
8.28872 31.1579 36.325 164 188 216
-7.72101 30.5836 35.6341 182 212 248
-9.52585 29.9803 35.5279 184 211 245
-14.0789 28.0061 35.2362 173 200 234
-11.7518 29.4689 34.9586 180 205 238
-12.206 29.2848 34.93 178 205 238
-6.80397 30.4528 34.7645 172 209 254
-9.91264 29.9683 34.1602 136 171 219
-10.8123 29.7321 34.1103 169 207 245
-5.8597 30.8467 33.9245 157 174 213
-6.76455 30.4797 33.867 132 147 217
-11.6926 29.5092 33.6113 174 207 237
-9.87321 29.9952 33.2624 123 162 200
-6.72512 30.5066 32.9695 117 145 195
-11.6611 29.4045 32.7053 174 208 236
-10.2797 29.9697 32.3435 130 168 209
-10.7214 29.6678 31.8573 166 199 232
-11.6296 29.2998 31.7988 175 206 235
-6.65921 30.6781 31.6313 168 197 230
-7.06552 30.6526 30.7129 180 210 241
-9.29417 30.3908 30.6071 179 208 239
-7.48578 30.3647 29.7773 183 207 244
-22.1127 23.4116 27.3885 170 191 223
-23.79 19.1976 27.0455 171 184 221
-27.8715 8.27982 26.1675 91 117 164
-28.3578 7.94282 26.1261 118 148 194
-20.8239 22.5087 26.9248 170 194 221
-21.7467 22.1332 26.8633 166 190 221
-23.2949 19.5366 26.6296 175 181 209
-27.8146 8.71733 25.7323 70 98 163
-23.2099 20.3651 26.2308 161 170 203
-28.2557 8.67704 25.246 92 109 168
-28.8037 7.63334 25.1542 103 124 171
-21.7173 22.0256 25.9454 168 189 222
-22.1686 21.9726 25.924 174 182 221
-23.6315 20.4612 25.7635 102 118 163
-27.7738 8.74515 24.8034 100 118 168
-3.74367 31.6639 26.86 180 203 236
-20.7844 22.28 25.5436 169 195 223
-21.7182 21.7694 25.4717 169 186 219
-22.6746 20.9874 25.3802 136 145 183
-28.2761 7.99854 24.2661 105 124 164
-23.6242 20.0816 24.8231 83 108 149
-27.7573 8.4907 23.854 96 112 158
-15.0116 27.7484 25.2429 178 201 233
-21.2474 21.5796 24.5643 172 183 214
-22.172 21.2031 24.5015 131 137 175
-15.4481 27.577 24.7616 173 201 236
-19.2724 23.8239 24.3448 172 196 224
14.0997 30.5331 25.6742 154 173 193
-14.9895 27.5106 24.3225 164 192 227
-19.2427 23.9716 23.9017 174 198 224
-21.6696 21.4186 23.6232 104 110 158
-22.1531 20.9597 23.5713 87 104 168
-23.1222 20.0399 23.4673 97 115 171
-23.5859 19.8508 23.4356 102 114 168
-24.0169 20.0693 23.4345 90 99 150
-24.5253 19.3365 23.3619 75 83 124
-14.9698 27.5241 23.8719 148 168 204
-15.865 27.419 23.8294 145 163 212
-17.6742 26.9434 23.7244 169 200 226
-23.9968 20.083 22.9788 84 95 135
-27.4585 11.0771 22.1882 100 113 136
-20.6749 22.2269 22.8081 150 156 197
-21.6192 21.581 22.7239 70 74 143
-15.3601 27.7633 22.97 107 129 186
-17.6628 26.5723 22.7922 170 199 227
-19.6826 23.2885 22.4695 172 192 214
-22.0615 21.4064 22.2373 58 69 141
-22.5453 20.9475 22.1844 69 82 147
-27.5141 9.98281 21.1756 99 101 118
-27.926 10.4903 21.1975 107 114 139
-14.8929 27.8294 22.5408 120 145 179
-20.635 22.2541 21.8995 111 118 159
-21.5689 21.7433 21.825 75 86 147
-23.4623 20.4484 21.6545 89 110 134
-27.9785 9.66143 20.6681 108 117 136
-8.92481 30.895 22.5518 136 176 222
-22.0426 21.1632 21.3062 66 87 138
-22.5373 20.5684 21.2419 53 71 109
11.9765 30.2191 22.8525 150 171 196
8.4313 31.3782 22.8054 149 174 206
-18.1467 25.2285 21.3116 174 197 224
-21.5497 21.5004 20.8942 108 115 163
-22.5386 20.3108 20.7647 71 83 114
-23.4658 19.9328 20.7001 99 117 124
-8.44709 30.8431 21.6656 170 200 244
-10.2677 29.9773 21.5285 170 198 242
-14.3861 27.9224 21.211 171 193 245
-20.1238 22.348 20.558 122 125 166
-27.8325 10.686 19.3565 111 123 139
-28.3047 10.4918 19.3233 107 127 142
12.0209 30.5099 21.9714 127 148 191
8.47081 31.4052 21.906 136 154 193
-14.8312 27.6186 20.718 134 160 231
-17.1713 25.8944 20.4932 173 200 229
-21.0065 22.2555 20.0609 72 91 149
-22.962 20.1492 19.8208 93 109 124
-28.8309 9.46805 18.7579 104 126 142
10.2664 31.103 21.4989 108 132 175
-8.86788 30.5553 20.7259 139 155 193
-12.9629 28.7676 20.428 126 147 215
-20.5251 22.4569 19.6391 91 114 186
-21.9207 21.7584 19.5305 66 89 144
-23.384 20.2454 19.3547 111 120 118
-7.94234 30.9358 20.341 116 140 190
-9.76986 29.9386 20.1916 122 140 196
-19.0535 23.9732 19.3605 160 170 208
-21.4179 22.2297 19.1309 81 107 162
-22.3629 21.5839 19.0432 95 109 149
8.97372 31.3668 20.5673 143 165 204
-12.0297 28.8996 19.5708 107 129 177
-14.307 27.9764 19.4097 131 146 197
-17.1304 25.6686 19.1157 170 197 226
-18.0951 24.6282 18.9949 174 194 213
-19.5332 23.2628 18.8299 109 121 169
-20.4649 22.7535 18.7533 83 102 173
-21.8493 22.1903 18.6552 85 99 148
-22.8054 21.4093 18.5557 107 129 165
9.43734 31.3014 20.1278 146 170 195
-7.90294 30.9627 19.4439 139 163 197
-9.73791 29.834 19.2822 141 166 198
-17.1106 25.6821 18.6638 170 197 225
14.3404 29.5199 19.7141 150 172 202
8.12613 31.5514 19.6472 149 175 207
-9.71067 29.979 18.8441 156 186 225
-20.876 22.7278 17.8239 107 131 166
-21.8094 22.2176 17.7466 80 109 131
-12.8807 28.571 18.1563 171 194 230
-18.5044 24.3484 17.5925 175 187 208
-19.4536 23.5723 17.4921 91 107 142
15.2762 29.5201 18.8418 153 167 191
14.3782 29.4146 18.7992 132 141 174
9.04966 31.2893 18.7569 150 163 197
-15.6414 26.8121 17.4526 132 150 181
-16.5928 25.9086 17.3409 148 172 208
-20.8362 22.755 16.916 101 127 170
-21.759 22.3796 16.8497 81 111 140
-12.8411 28.5979 17.2562 137 162 221
-13.7692 27.9641 17.1676 136 153 221
-16.5822 25.789 16.8773 107 138 190
-17.9861 24.8297 16.7432 168 184 217
-18.4646 24.3755 16.6867 170 182 207
-19.3941 23.8678 16.6087 101 109 146
14.4161 29.3093 17.8839 113 117 134
9.53916 31.5001 17.8896 134 142 191
8.6486 31.5264 17.8586 111 126 174
-20.3251 23.1041 16.0533 85 91 141
-21.7087 22.5415 15.9533 75 108 126
-12.7933 28.757 16.3679 112 134 203
-13.7296 27.9911 16.2667 99 131 194
-16.5608 25.5493 15.9497 97 134 196
-17.4873 25.0433 15.8713 139 179 224
-19.8145 23.7079 15.6689 65 73 127
-20.295 23.2521 15.6115 55 68 125
14.4521 29.0712 16.9565 127 147 183
8.69129 31.6847 16.9708 113 134 176
5.14206 32.0516 16.8709 139 162 192
-13.2289 28.5859 15.8849 118 145 210
-15.0787 27.4496 15.7168 127 156 216
9.59844 31.5406 16.5401 159 177 203
7.38501 32.0651 16.5044 143 163 192
6.94236 32.1437 16.4949 146 166 198
-5.98266 30.8863 15.9046 158 183 216
-10.4727 29.8368 15.6456 173 197 229
-12.7538 28.7839 15.4681 145 177 212
-21.6593 22.4476 14.5788 57 89 127
-28.5864 9.63481 13.1915 110 131 152
4.30205 32.3662 15.966 164 189 225
-28.5168 10.211 12.7795 112 130 153
14.5117 29.1119 15.5997 154 171 198
7.42796 32.223 15.6179 163 186 220
6.53935 32.2491 15.5874 158 175 220
5.65117 32.2752 15.557 160 175 206
-15.0281 27.3575 14.3523 173 201 225
-19.7249 23.8963 13.868 73 88 143
-26.8893 13.0422 12.6285 129 135 143
-27.8542 12.3775 12.5332 122 133 153
-21.1894 22.0021 13.1872 77 105 170
-21.6724 21.5438 13.1279 75 103 151
7.46741 32.2499 14.7197 167 187 223
6.1441 32.616 14.7046 127 147 201
5.24866 32.3805 14.6502 107 141 194
4.80692 32.4589 14.6412 112 146 194
-17.3962 24.7235 13.1188 174 198 226
-21.1901 21.7456 12.7071 95 103 163
-22.6738 19.9603 12.4894 94 111 126
-28.4435 10.393 11.4025 108 130 160
-22.1371 20.8413 12.1322 70 89 122
-26.3585 13.2766 11.2796 90 91 98
-28.8958 10.2124 10.904 118 144 172
7.51033 32.4077 13.8339 160 189 217
6.18729 32.7736 13.8196 122 150 202
-18.7544 23.9223 12.085 176 188 221
-22.623 20.1234 11.5901 75 98 133
-26.7964 13.2366 10.7967 93 104 117
4.87011 32.6299 13.3076 137 166 206
-7.64242 30.5084 12.6528 131 157 215
-8.08856 30.456 12.6316 133 157 216
-19.7446 22.3507 11.4461 140 147 174
-20.2264 21.8927 11.3855 91 98 130
-25.8482 13.497 10.3924 87 88 81
-27.2343 13.1966 10.3138 100 116 140
-28.917 9.53723 9.90888 121 148 168
8.44186 32.5394 12.9783 166 185 213
-6.7168 30.8891 12.2714 173 198 235
-18.734 23.6811 11.1522 176 190 218
-20.7196 21.0417 10.8302 85 102 136
-26.7677 13.1251 9.86071 97 103 130
-28.3988 10.0272 9.50807 111 136 165
-1.3237 32.0548 12.1272 173 199 234
-7.58896 30.7978 11.7802 179 205 238
-8.48805 30.5618 11.7251 179 205 234
-19.2236 22.8351 10.5981 176 189 226
20.4978 25.503 11.8341 144 158 188
-25.3294 13.5923 9.03095 78 97 160
-26.7154 13.2919 8.95193 70 89 144
-28.4072 9.49231 8.52481 117 148 175
-19.2132 22.4582 9.64943 173 195 227
-23.5599 18.4506 9.10351 79 99 155
-25.7672 13.5523 8.54814 69 77 131
-27.1652 13.1128 8.45507 86 105 152
20.5378 25.5303 10.9224 143 155 187
-20.187 21.1494 9.02968 168 189 210
-25.2546 14.0363 8.15082 81 97 140
-19.7045 21.3516 8.60939 171 195 217
-22.0297 20.2723 8.41945 89 95 131
-24.5514 16.8642 7.99248 89 110 151
-26.6311 13.6112 7.59666 108 126 153
-22.0202 20.1501 7.94952 107 113 157
-25.6488 14.2874 7.23604 103 116 152
-26.5756 14.0413 7.17841 101 118 150
-26.5436 14.1937 6.73211 87 111 140
-22.5293 18.8989 6.88834 136 148 189
-24.1688 15.3062 6.46649 67 85 142
-25.1166 14.7841 6.37996 77 96 154
-27.0283 13.5988 6.19204 117 151 166
-21.0848 19.8898 6.58143 167 189 218
-22.034 19.2386 6.48134 166 188 223
-25.6111 14.0515 5.82539 78 96 131
-26.5266 13.944 5.78195 105 135 153
-22.088 18.2966 5.92356 167 190 216
-22.5962 17.5586 5.82971 166 188 211
-23.6275 15.9393 5.62675 157 176 196
-24.1172 15.4719 5.56136 140 159 178
-25.6254 13.649 5.32061 117 143 162
-25.6052 13.6628 4.85953 146 176 195
-24.1549 14.5314 4.53804 164 187 207
-25.5877 13.4125 3.90732 169 188 202
-25.6829 12.0328 3.2942 167 185 205
-24.0608 14.9881 3.20201 166 187 210
-25.6626 12.0467 2.83179 167 185 203
-25.7002 11.3613 2.29207 168 185 201
-25.7031 11.095 1.7979 161 173 203
-19.2667 23.954 2.9607 166 191 221
-14.1107 27.35 3.05695 174 193 224
-13.6426 27.4162 2.62702 164 166 194
-14.5453 26.926 2.0879 106 110 162
-19.207 23.9948 1.60039 75 76 141
-24.2514 16.8093 0.624417 53 66 122
-11.7379 28.8449 1.94622 67 82 153
-12.1933 28.6602 1.90985 66 82 151
-13.603 27.4432 1.72464 60 75 146
-14.9828 26.754 1.59984 56 74 142
16.4233 28.4685 2.41227 47 63 122
-18.2087 24.9313 0.829306 49 68 130
-24.5659 18.0176 -0.17136 73 89 142
-25.6242 16.1258 -0.421923 77 92 130
16.4432 28.4821 1.95905 46 64 121
-13.0818 28.053 0.90517 53 75 149
-14.4598 27.3649 0.779714 56 79 153
-12.565 28.9123 0.568513 70 91 149
-13.9662 27.8289 0.396388 70 90 168
23.7028 23.179 0.679784 59 69 113
21.4307 25.615 0.884936 73 80 137
19.235 27.134 -0.38412 47 63 123
-20.5137 24.4596 78.7514 168 195 228
-22.1944 23.6495 78.6672 155 180 213
-9.23885 30.2462 78.8604 118 137 182
-12.6888 29.4161 78.6711 175 202 241
-14.7676 28.3456 78.568 142 149 201
-15.2121 28.3395 78.5417 135 146 207
-18.1305 26.8648 78.3964 157 184 221
-24.48 20.5936 78.1396 167 193 222
-16.473 27.9458 78.0256 67 105 184
-17.753 27.5372 77.9573 133 173 215
-18.5384 26.7433 77.9254 167 198 234
-19.7862 26.073 77.8639 170 195 230
-20.4421 24.2265 77.8593 171 192 227
-21.2827 23.8214 77.8169 170 177 218
-24.9065 20.6042 77.6618 168 194 222
-9.20056 30.276 77.9649 73 110 170
-14.7472 28.5054 77.6689 147 160 205
-15.1916 28.4992 77.6427 106 114 166
-16.8805 27.8245 77.555 107 147 213
-22.0881 23.2992 77.328 82 104 168
-19.7813 26.3642 76.9606 172 197 227
-21.6238 23.3192 76.9041 104 115 163
-25.728 20.3597 76.7131 166 193 221
-14.2643 28.5415 76.7992 178 203 239
-16.8248 27.7241 76.6625 127 165 227
-18.4979 26.9185 76.5777 172 197 234
-22.0334 23.1973 76.4311 62 81 156
-24.8798 20.9148 76.3015 166 192 226
-25.6894 20.3897 75.8104 166 193 221
-16.7518 27.4935 75.7726 130 169 231
-18.9035 26.9424 75.6558 172 196 233
-21.1536 23.6328 75.5738 112 116 167
-24.8256 20.8121 75.402 165 194 224
-9.90122 29.6891 75.689 156 197 239
-25.62 20.1538 74.9131 168 193 224
-26.4653 19.7459 74.8699 166 191 221
-9.04734 30.1062 75.2837 86 127 185
-16.696 27.393 74.8791 130 168 230
-18.8314 26.7114 74.7651 172 199 235
-20.2909 24.1997 74.7141 160 169 220
-21.1152 23.6628 74.6738 87 101 151
-23.5767 21.9165 74.555 98 140 201
-24.357 20.9794 74.5224 156 189 224
-9.43594 29.8552 74.8156 120 162 207
-11.2372 29.9585 74.7111 175 202 240
-17.4946 27.0197 73.9396 166 204 242
-23.9043 21.2793 73.6404 120 159 215
-26.8225 19.5204 73.4942 166 189 220
-9.78651 29.489 73.9016 154 196 240
-16.1939 27.4436 73.5596 77 115 184
-24.7135 20.7544 73.148 156 194 228
-25.1125 20.3513 73.1297 163 191 222
-25.4963 19.8146 73.1136 165 193 222
-10.6217 29.2312 73.4077 173 199 244
-11.1611 29.8736 73.3707 177 200 245
-23.8499 21.1767 72.7402 86 130 184
-24.6785 20.6365 72.6988 151 193 230
-25.923 19.8253 72.6365 166 193 220
-26.3993 20.0872 72.607 167 191 220
-16.5828 27.3371 72.6402 128 168 230
-17.4371 27.0644 72.5946 169 203 238
-25.0583 20.2482 72.2286 159 190 222
-9.74808 29.6636 72.5544 157 196 239
-10.6022 29.391 72.5089 173 198 241
-23.7954 21.074 71.8397 61 99 163
-24.6399 20.6666 71.7958 139 183 229
-25.0389 20.2633 71.7769 154 187 220
-25.8535 19.589 71.7369 166 191 223
-17.416 27.2247 71.696 168 202 241
-26.6499 18.9287 71.2446 165 191 222
-9.70976 29.6934 71.658 154 197 239
-24.1711 20.8339 70.9158 75 115 178
-25.8303 19.7523 70.8311 164 190 222
-26.6458 19.0772 70.7905 165 192 221
-20.5961 24.592 70.6379 82 117 194
-21.4036 23.924 70.5974 90 122 190
-23.3554 21.6542 70.5034 64 76 150
-23.7217 20.9862 70.4873 53 73 136
-27.544 19.499 69.8323 164 192 218
-20.986 24.4851 69.7161 162 190 223
-26.1876 19.5266 69.4538 164 192 223
-21.3459 23.9688 69.248 167 198 228
-23.6479 20.8985 69.1342 69 80 129
-8.74053 29.9108 69.464 58 84 160
-20.9146 24.2521 68.8198 167 196 231
-27.3809 18.6102 68.4858 165 190 224
-3.49286 30.9143 69.2963 156 186 218
-9.55659 29.5231 68.9714 103 143 215
-23.5933 20.7956 68.2322 96 101 153
-26.0836 19.1716 68.1012 157 191 223
-20.8596 24.1505 67.9215 166 196 226
-21.2389 23.6186 67.9019 169 197 226
-23.59 20.9436 67.7794 109 111 168
-25.6642 19.5909 67.6698 133 178 221
-26.8807 18.5105 67.6059 159 190 229
-26.0603 19.3351 67.1956 145 182 220
-27.3228 18.6553 67.1284 158 180 205
-3.37361 30.5697 67.953 131 152 205
-8.66387 29.9704 67.6707 109 126 179
-18.8142 25.9136 67.129 75 89 127
-23.9658 20.7033 66.8541 96 92 130
-24.3804 20.4329 66.832 70 69 106
-25.6255 19.621 66.7655 109 126 163
-26.842 18.5407 66.7006 160 169 190
-4.16955 30.0515 67.4601 96 122 204
-17.529 26.469 66.7477 131 143 169
-26.0062 19.2318 66.2918 127 152 190
-27.269 18.5517 66.2242 133 148 182
-8.08175 29.3572 66.8018 159 188 226
-25.5714 19.5177 65.8619 137 171 210
-26.7729 18.3032 65.7964 152 183 223
-1.94847 30.5049 66.6772 115 126 164
-24.3067 20.345 65.4771 161 186 223
-27.2153 18.4481 65.3196 159 188 219
12.7784 29.556 66.995 139 162 193
-8.4905 29.3806 65.8805 154 191 250
-25.5172 19.4145 64.9578 151 190 238
-26.7189 18.1995 64.8911 149 188 232
-1.91004 30.5348 65.7781 114 148 207
-22.7394 22.5157 64.6612 130 160 206
-23.1207 21.9816 64.6393 131 160 204
-24.3118 20.9218 64.1205 97 107 157
-24.6286 20.0013 63.6466 47 68 137
-25.4592 19.4596 63.6008 48 68 138
-24.9896 19.6273 62.7191 45 69 142
-27.8396 13.1303 62.528 49 67 138
-18.1089 25.5446 62.6616 70 102 163
-22.2299 22.8598 62.4311 44 74 155
-22.5624 21.9289 62.407 53 84 166
-24.1399 20.1839 62.3132 66 88 135
-25.3857 19.3713 62.2435 70 90 137
-25.7704 18.8329 62.2197 71 88 135
-22.973 21.8067 61.9329 66 97 154
-23.7693 21.0015 61.8857 110 133 166
-24.9509 19.6574 61.8144 131 139 162
-27.8759 13.8408 61.6167 58 74 132
-25.7317 18.863 61.3142 108 133 193
-27.0331 14.5405 61.2085 99 116 160
-16.8188 26.3923 61.3831 164 180 221
-24.9122 19.6875 60.9097 105 119 174
-27.8671 14.1427 60.7057 79 93 132
-22.883 21.5866 60.5781 40 79 148
-25.693 18.8931 60.4087 53 67 128
-28.3418 14.5617 60.2295 84 103 146
-26.0435 18.2352 59.9297 42 77 146
-22.8283 21.4839 59.6745 38 77 143
-24.8542 19.7326 59.5527 99 108 159
-25.6543 18.9232 59.5031 52 64 135
-27.586 16.2201 59.3742 124 139 172
-27.944 15.407 59.3464 88 100 141
-28.4072 15.5389 59.3252 78 86 141
-2.1512 30.9821 59.913 106 111 161
-24.8155 19.7627 58.648 98 108 157
-23.9625 20.4675 57.7932 143 174 222
-28.0012 16.6811 57.539 72 81 132
-24.3265 19.9454 57.314 140 148 190
-23.9079 20.3644 56.8876 142 175 218
-19.9646 24.9391 56.253 110 124 197
-26.7175 17.9611 55.8031 105 113 153
-23.8499 20.4095 55.5313 145 180 217
-27.8891 16.622 55.2674 53 64 133
-16.1412 26.7232 55.5668 166 180 220
-19.9261 24.969 55.3539 63 81 156
-26.6483 17.723 54.8925 124 137 174
-17.7995 25.9298 55.0225 57 72 144
-19.8902 24.8525 54.9023 49 68 146
-22.5998 21.5165 54.7061 36 74 140
-23.8113 20.4395 54.627 144 176 221
-27.4328 16.9249 54.3844 84 86 145
3.76149 32.0009 55.7049 51 64 127
-16.5133 26.4856 54.6437 162 176 216
-24.1754 19.9174 54.1454 140 147 193
-26.1004 17.2197 53.9975 104 138 205
-27.7708 16.1285 53.8963 67 71 127
-22.5612 21.5465 53.8029 38 76 142
-24.5714 19.6614 53.6677 96 103 155
-26.4983 16.9622 53.5181 118 146 197
-16.4574 26.3846 53.7429 163 175 215
-23.7533 20.4847 53.2706 145 176 222
-25.6445 17.5224 53.1149 41 72 147
-22.9689 21.5719 52.8792 57 97 158
-24.5327 19.6915 52.7626 97 102 153
-26.8769 16.7196 52.5841 129 162 217
-27.6824 15.904 52.5277 112 124 172
-16.419 26.4145 52.8442 161 175 213
-23.7146 20.5147 52.3664 145 178 221
-25.5435 17.0147 52.1965 44 62 144
-25.9764 16.8765 52.1734 46 69 146
-22.9303 21.6019 51.9762 59 100 153
-24.494 19.7216 51.8575 100 105 154
-26.8076 16.4805 51.6701 83 118 182
-16.8087 26.3077 51.9226 148 158 192
-20.9256 23.6253 51.6668 64 76 145
-23.676 20.5448 51.4621 146 181 219
-25.4891 16.9104 51.2849 45 63 129
-27.1757 15.9527 51.1839 99 137 184
-19.7364 24.9722 51.3048 127 151 193
-24.8865 19.6141 50.9293 79 96 165
-25.8872 16.6525 50.8044 42 63 127
-26.7229 16.1062 50.7522 50 80 138
-27.514 15.1537 50.691 114 148 197
-20.9036 23.7871 50.7689 54 68 143
-22.8885 21.7796 50.6247 81 114 200
-24.0206 20.0378 50.5258 100 130 205
-16.7511 26.3526 50.5744 70 92 171
-19.6644 24.7393 50.3994 74 93 163
-25.8173 16.4131 49.8888 45 59 131
-27.8789 14.7746 49.7507 62 80 144
-20.4361 23.9541 49.8912 48 64 135
-23.9819 20.0679 49.6209 48 63 131
-27.0218 15.3376 49.3481 46 64 130
-21.9868 22.2317 49.3198 52 64 124
-24.2831 19.0104 49.1221 50 61 119
-24.6678 18.4709 49.089 49 61 119
-26.1191 15.4945 48.9356 51 59 117
-25.3569 16.8663 48.5545 76 92 134
0.704389 31.9291 44.294 160 183 218
-15.6906 27.9393 42.5703 175 203 236
-12.6798 28.9091 42.2814 166 193 250
-14.7809 27.9664 42.1575 159 191 234
-15.6522 27.9691 41.6733 174 203 235
-16.4019 26.913 41.5972 178 199 237
-14.7246 27.8659 41.2549 141 178 223
-15.5785 27.7383 40.7657 174 202 239
-14.6683 27.7653 40.3518 133 173 218
-15.5224 27.6377 39.8627 174 202 240
-16.7531 26.8362 39.7777 177 199 246
-6.11529 30.9303 39.4782 135 152 206
-15.4663 27.537 38.9593 171 202 238
-16.2675 27.0176 38.4531 182 202 236
-6.07693 30.9601 38.581 145 162 200
-17.1043 26.7593 37.9582 171 176 205
-16.6571 26.9109 37.5319 172 196 227
-6.03857 30.9899 37.6837 159 190 234
-15.3142 27.511 35.8102 182 211 243
-11.1101 29.5422 35.6219 185 208 249
5.60182 32.1547 35.9119 164 186 213
4.67546 32.2703 35.8854 163 182 211
-12.0013 29.674 35.1475 186 210 248
-8.85802 29.8795 34.37 143 167 225
5.63685 32.3296 34.5667 157 177 204
3.44302 32.0491 34.0223 119 140 188
4.3651 32.0783 33.6039 109 133 180
3.48151 32.0791 33.1219 152 167 200
-5.30148 30.9315 31.8522 153 179 209
-6.15845 30.9477 30.9238 171 196 232
-25.5873 15.0749 28.8148 170 194 221
-26.4567 14.7973 28.7684 170 192 218
-25.987 14.8157 28.3271 168 193 218
-25.5483 15.1052 27.9024 169 190 211
-26.8217 14.4174 27.8159 162 186 209
-27.2371 14.2938 27.3363 146 164 203
-27.6417 13.8831 27.2959 147 171 207
-22.6354 21.2089 27.4908 172 199 227
-20.1481 22.9771 27.2361 178 203 236
-22.5351 20.5583 26.9958 171 199 226
-25.5523 15.6926 26.5687 78 94 178
-26.8245 15.0057 26.4817 69 98 157
-21.0387 23.1143 26.7645 178 202 235
-25.5796 16.1134 26.1394 94 109 175
-20.1597 23.4038 26.3592 180 202 237
-23.7428 19.7749 25.9947 103 119 179
-24.5747 19.2319 25.931 67 101 143
-27.1743 14.4904 25.5195 87 111 148
-19.2976 23.8253 25.9627 180 202 237
-25.2789 17.7643 25.3508 95 119 140
-25.9436 15.7348 25.1872 99 121 139
-26.3624 15.4608 25.155 93 115 139
-26.7507 14.9157 25.1046 98 123 152
-10.2422 29.7321 26.2082 179 203 240
-16.4633 26.2465 25.7694 179 207 237
-20.0876 23.1694 25.4391 175 200 230
-25.7544 18.1784 24.9099 101 118 161
-10.2231 29.747 25.7595 178 203 242
-11.8776 28.8106 25.6418 178 209 238
-15.6399 26.928 25.3919 177 202 237
-21.2763 22.1101 24.8736 176 190 223
-24.5796 19.8116 24.6077 115 131 191
-28.18 7.79909 23.6328 85 107 158
-16.4599 26.5385 24.8876 173 203 238
-18.4144 24.4085 24.6736 177 201 237
-28.4337 6.14238 23.0415 83 117 152
-10.5745 29.3803 24.8212 174 199 233
-11.8392 28.8405 24.7437 173 197 230
-13.888 27.5048 24.5842 168 195 235
-15.1553 26.9637 24.5065 171 197 239
-17.2629 26.0177 24.3739 173 199 239
-20.807 22.2776 23.9927 176 186 217
-22.0662 21.5996 23.9052 87 105 185
-28.095 7.41295 22.6809 85 110 142
-9.73795 29.9283 24.4361 151 171 205
-26.08 9.9301 22.4645 115 111 127
-10.5361 29.4102 23.9233 129 149 204
-12.6382 28.4669 23.7906 123 147 195
-13.8858 27.796 23.7036 130 147 199
-16.4373 26.8452 23.5572 125 153 208
-21.1825 22.0375 23.0564 98 106 175
-24.5494 20.272 22.8249 82 97 114
-26.5608 10.3571 22.0206 103 102 120
-7.56178 30.6405 23.6527 121 142 185
-9.25285 29.9647 23.5521 120 134 208
-15.9898 26.9968 23.1305 108 139 197
-21.6102 22.0478 22.591 64 69 136
-24.9143 19.7491 22.3203 104 108 107
-26.1031 10.5122 21.5842 101 101 103
-28.051 7.59798 21.3062 77 92 120
-28.3243 5.92457 21.1712 84 113 149
14.5149 29.1415 23.7248 150 165 188
-16.8097 26.6075 22.6258 156 188 229
-24.5107 20.3021 21.9197 104 107 107
-27.1827 8.17173 20.9121 101 104 114
-7.54299 30.8001 22.7647 132 165 214
-10.5163 29.715 22.5955 139 174 222
-12.599 28.642 22.4527 134 174 222
-19.5032 23.4268 21.851 181 187 235
-26.5174 10.5406 20.6516 101 103 100
-28.0115 7.62868 20.3832 83 87 127
-21.1052 22.0976 21.2484 121 134 171
-27.5827 8.06212 19.9661 104 103 129
-7.05748 30.8367 21.8806 168 196 235
-12.9884 28.5353 21.5318 174 200 240
-15.8953 26.9258 21.3228 169 198 235
-19.8611 23.055 20.9053 121 127 167
-22.3292 21.3016 20.6972 72 92 119
-23.5424 20.2226 20.5778 105 113 115
-26.5401 11.1215 19.7742 105 104 104
-15.8761 26.9408 20.8732 153 191 234
-23.8078 19.0457 19.5664 112 112 112
-24.1926 18.5055 19.5122 109 110 107
-25.5812 14.9835 19.19 107 109 124
-26.64 12.3861 18.9514 104 103 117
-15.8376 26.9707 19.974 146 178 224
-25.5773 15.1344 18.7442 134 140 147
-10.0307 30.3304 19.9563 116 143 165
-23.0495 20.5539 18.7999 112 131 162
-24.7673 16.1041 18.3877 114 124 152
-26.6779 13.0999 18.0891 116 125 126
-27.7863 6.74655 17.5371 117 123 142
-28.0746 5.20816 17.4029 99 111 156
-16.4807 25.415 18.9251 169 195 230
-21.8342 21.78 18.4797 78 101 131
-23.6537 18.2863 18.1411 154 166 155
-25.5539 15.3003 17.8424 143 151 170
-26.6737 13.2516 17.6424 121 139 128
-20.6224 23.0027 18.1604 122 140 181
-24.421 17.3525 17.5863 125 132 137
-24.7441 16.2696 17.487 136 141 163
-27.7009 6.3588 16.5788 122 126 156
-17.2662 24.9076 17.9567 176 200 235
-22.1776 21.2739 17.52 101 133 158
-22.5601 20.7368 17.4646 132 155 179
-23.5828 18.0478 17.2104 134 138 141
-25.5305 15.4662 16.9409 131 138 148
-21.7435 21.5595 17.1015 81 113 132
-23.5634 18.063 16.7558 143 158 181
-26.303 14.5253 16.3826 140 162 150
-26.692 13.9785 16.3258 139 164 161
-11.9599 28.9429 17.536 132 152 207
-22.8559 19.8285 16.4697 161 176 206
-23.9452 17.6708 16.2558 148 163 181
-24.3468 17.2632 16.2104 136 150 177
-24.6857 16.3151 16.12 142 148 183
-27.139 5.9869 15.168 136 143 156
-21.7212 21.7224 16.2079 77 109 133
-22.4858 20.6487 16.0951 142 160 179
-23.5245 18.0932 15.8467 141 148 153
-25.472 15.5117 15.5726 141 157 167
-11.9215 28.9727 16.6378 122 142 198
-22.8656 20.2593 15.5967 155 170 196
-23.489 17.9739 15.3807 127 139 145
-24.2603 16.889 15.2661 143 154 168
-21.6662 21.6197 15.2921 67 99 134
-23.8549 17.447 14.8684 144 154 152
-25.4174 15.4065 14.6488 149 150 140
-13.9682 27.9283 15.592 157 178 211
-22.843 20.4229 14.702 145 160 163
-23.1138 18.9479 14.5638 160 167 160
-24.2054 16.7843 14.3437 132 125 118
-24.5602 15.97 14.2623 113 111 113
-26.1434 14.0574 14.0524 112 119 129
-9.31595 29.967 15.4389 170 200 237
-17.9732 24.6066 14.7434 176 197 231
-19.1944 23.667 14.6288 112 114 170
-21.6111 21.5169 14.3759 65 86 135
-25.7664 14.8911 13.6777 110 116 130
-26.1239 14.0726 13.5953 113 123 130
-9.72453 29.8454 14.9671 177 202 238
-10.1143 29.4487 14.9216 177 202 237
-12.6821 28.629 14.7846 174 202 234
-23.4434 18.3032 13.5855 114 116 113
-23.8285 17.7615 13.5269 111 110 108
-24.2142 17.2192 13.4684 106 103 99
-24.5688 16.406 13.3859 100 101 104
-24.9557 15.8616 13.3271 95 100 104
-25.3432 15.3165 13.2682 104 112 117
-21.9381 20.8768 13.4009 90 110 141
-22.3045 20.2055 13.3306 100 116 128
-22.6554 19.3991 13.2484 104 115 116
-11.7505 28.6715 13.9088 179 204 240
-12.6253 28.5286 13.8747 182 206 241
-19.8791 22.5106 13.1461 74 89 154
-21.9187 20.8919 12.948 87 96 140
-24.1435 16.9798 12.534 104 100 95
-9.64785 29.7602 13.6086 172 200 243
-10.0377 29.3634 13.5625 178 204 245
-19.446 22.7957 12.7289 101 109 161
-20.2404 21.9899 12.6351 98 103 186
-23.4333 18.7511 12.2583 108 108 111
-27.2696 8.90801 11.252 98 106 133
-26.1359 11.1367 11.0248 96 98 99
-27.2038 8.50768 10.7532 96 102 135
-22.1944 19.9987 11.4929 73 89 146
-23.3945 18.7813 11.35 100 112 120
-8.71522 29.9482 12.2952 169 194 229
-18.0614 22.9882 11.4173 178 202 234
-22.5584 19.4746 10.9792 74 87 140
-23.7439 18.1213 10.823 98 106 127
-26.1279 11.4422 10.1315 103 101 126
-26.9413 10.6126 10.0338 78 91 124
-27.3792 10.4728 10.0104 77 101 137
-18.0249 22.8708 10.9527 179 201 238
-19.6982 21.9219 10.8236 144 154 197
-24.1099 17.5945 10.3076 100 117 158
-26.5302 11.1803 9.63616 85 99 145
-27.8127 10.4861 9.54033 90 116 159
-8.67682 29.978 11.3969 179 201 237
-24.0745 17.475 9.83995 80 98 141
-26.1509 12.0216 9.26497 79 89 140
-22.4351 18.984 9.56677 90 108 161
-25.7412 12.5871 8.86864 82 92 128
-26.9747 11.4833 8.73347 67 89 120
-21.583 19.5434 9.18434 81 101 148
-26.1739 12.5999 8.40006 85 111 141
-27.3772 11.2217 8.238 77 100 141
-27.7842 10.8071 8.18825 82 108 151
-28.1916 10.3921 8.13846 106 136 165
-21.9798 19.2864 8.69426 84 103 164
-23.2297 18.4695 8.58609 91 112 160
-23.5665 17.5241 8.48499 88 111 152
-23.9523 16.9812 8.42275 88 111 158
-25.749 13.0279 7.99152 90 118 163
-26.5601 12.2018 7.89197 101 117 156
-28.6098 10.2677 7.65559 150 176 194
-22.3605 18.8952 8.19089 73 97 161
-25.1091 15.4986 7.79229 99 119 173
-27.399 11.8012 7.37345 79 107 144
-28.5983 -2.38297 5.92935 162 180 190
-21.0921 19.7268 7.84526 157 170 215
-22.774 18.7721 7.7134 75 93 154
-23.1747 18.3654 7.66392 92 114 178
-23.9134 17.0115 7.51183 82 111 161
-27.6373 -2.51325 5.4653 169 184 193
-23.8779 16.8917 7.043 80 93 146
-24.6986 16.2092 6.95649 90 98 150
-25.1173 15.9353 6.91991 100 106 161
-26.2198 13.7531 6.67521 69 91 152
-27.0303 12.9289 6.57454 88 125 164
-28.4968 -2.92728 4.93359 168 183 184
-28.9091 -3.19866 4.42552 161 170 160
-23.1003 18.2764 6.28661 137 160 183
-23.8229 16.7871 6.11827 95 120 166
-25.8851 15.1461 5.90691 83 122 160
-27.9936 -2.89721 4.00343 176 189 179
-28.4413 -3.04012 3.97954 180 188 173
-21.7646 18.572 5.88764 171 199 222
-26.3468 15.4292 5.46858 138 174 202
-27.5369 -2.43515 3.11709 172 183 187
-28.4319 -2.72083 3.06933 180 185 175
-22.2082 18.8669 4.9964 174 196 221
-28.8745 -2.70407 2.59068 176 179 163
-27.1748 -1.11255 2.32122 169 184 194
-27.9907 -2.11537 2.19884 175 186 182
-27.5546 -1.66976 1.78353 167 178 187
-28.8649 -2.38523 1.68182 171 174 165
-26.6881 -0.938807 1.40761 171 175 183
-24.1367 16.8895 2.91972 172 191 210
-26.668 -0.923217 0.938888 148 155 181
-27.8995 -2.35599 0.760324 123 131 145
-28.8095 -2.49775 0.727903 151 156 157
-25.3098 15.542 2.29314 162 163 179
-27.0946 -1.05019 0.446333 92 101 139
-17.3677 24.2052 2.9333 172 194 225
-24.8397 15.5604 1.84538 119 126 164
-26.8764 13.6422 1.59708 94 90 134
-27.5523 -0.890767 -0.0152539 77 92 128
-28.8457 -1.74833 -0.133239 141 156 163
0.893417 31.6901 3.63777 157 172 198
-19.8629 22.8665 2.28642 143 139 188
-25.2708 15.5723 1.38049 58 74 135
-25.6432 14.8908 1.29823 55 70 132
-26.0473 14.48 1.24542 55 68 131
-18.5344 23.1615 1.88886 100 104 154
-20.2575 22.6115 1.79691 88 90 149
-21.5171 21.9334 1.69887 80 82 144
-23.9629 16.1392 1.00859 56 64 132
-24.8165 15.7263 0.947361 51 66 128
-26.0278 14.4952 0.788444 57 72 128
-27.3036 13.806 0.688875 60 72 121
-19.3766 22.9015 1.39075 54 71 146
-22.9641 19.2628 0.918959 50 67 133
-25.6042 14.9212 0.384698 53 77 122
-26.8331 13.8241 0.239881 68 86 138
10.0559 31.6152 2.43011 52 76 129
-21.8603 21.4271 0.726879 60 79 148
-23.3291 18.7375 0.3971 56 73 136
-23.6339 17.5235 0.254421 55 73 134
-23.9719 16.5753 0.141255 57 75 132
-13.317 28.1456 1.18304 55 78 147
-16.8916 24.9602 0.306053 75 94 171
-3.5905 32.3571 0.9267 93 105 178
11.1313 31.4581 -0.299922 47 60 124
-7.58813 31.7256 78.5681 78 95 162
-23.9842 21.6589 77.2372 166 200 228
-24.3165 21.2051 77.2241 168 198 225
-4.00229 30.8831 77.9171 154 178 206
-22.5654 23.3823 75.9465 51 77 149
-23.9279 21.6985 75.887 161 200 232
-22.5455 23.5488 74.5944 61 77 129
-9.89422 30.7704 74.8396 150 184 219
-10.0233 29.6955 74.8462 163 189 223
-22.5442 23.7021 73.692 83 94 140
-9.85682 30.7967 73.9426 148 184 221
-21.0765 25.1526 72.8656 90 124 179
-26.1127 20.3719 71.7072 169 201 227
-13.9024 30.6979 71.9001 170 194 221
-17.1798 27.9488 70.829 164 204 241
-25.0655 20.4769 68.6087 117 161 218
-24.0301 21.8653 67.7604 80 89 155
-25.3969 20.1767 67.6873 112 155 213
-27.9491 17.7569 67.5483 162 194 234
-28.3895 17.687 67.5231 159 195 235
-27.4871 17.9955 66.2163 138 148 172
-13.3162 28.1517 66.5564 156 185 218
-23.991 22.0456 65.9584 152 182 215
-24.2326 21.3499 65.4938 163 190 224
-26.0412 19.589 65.3923 162 196 224
-27.8009 17.7073 64.8407 154 195 242
0.940017 30.6373 65.9977 120 151 202
-23.4948 22.1558 64.6332 125 161 210
-26.3524 17.5426 64.4678 130 157 206
-27.8712 16.3572 64.3819 129 160 200
-2.57973 29.9409 65.3491 87 104 160
-24.2481 21.645 64.1396 93 104 154
-27.3045 16.0509 63.9586 96 106 156
-27.9771 15.1315 63.9195 97 108 155
-24.0497 21.019 63.6974 52 72 139
-26.1723 17.0516 63.5694 47 70 140
-26.5077 16.5929 63.5497 47 69 139
-28.6672 14.3543 63.4249 47 68 137
-22.8897 21.8831 63.3118 50 66 139
-25.747 17.2643 63.1394 50 65 140
-28.6483 14.3676 62.9711 45 64 133
-27.5132 15.3711 62.5819 45 64 135
-25.7092 17.2908 62.2339 72 94 140
-27.5462 15.6578 61.6727 59 78 135
-25.7787 17.7054 61.3254 118 156 213
-28.3763 15.4019 61.1728 64 87 148
-28.7131 14.942 61.152 75 99 161
-21.5827 22.5442 61.1279 48 68 141
-27.1723 16.1438 60.7872 140 158 194
-27.5437 15.8143 60.7653 111 117 165
-28.7292 15.0855 60.6977 81 96 168
-25.8123 17.9903 60.419 48 77 136
-27.2738 16.8452 58.9727 141 178 218
-28.3873 15.8581 58.9057 71 79 142
-25.825 18.4437 58.1571 44 68 136
-25.823 18.5991 57.2533 48 68 137
-25.7685 18.4834 56.8015 49 70 133
-28.4684 16.5727 56.6419 45 65 133
-17.5759 25.4212 56.8509 125 139 205
-27.6373 16.9844 56.2351 59 74 143
-28.7286 14.7077 53.42 43 61 131
-27.6293 15.8405 53.0386 101 108 160
-7.65498 30.0294 53.7947 57 74 169
-28.2835 14.934 52.5356 60 65 117
-24.1907 20.3247 51.9302 145 153 197
-25.7887 17.7846 51.8019 45 64 138
-28.5123 14.2392 51.6004 71 79 136
-28.8308 13.7912 51.1208 66 73 125
-28.4393 14.1352 50.6909 111 130 183
-25.7321 17.8244 50.4446 48 66 139
-28.7578 13.687 50.2107 77 105 173
-25.7489 17.9668 49.9938 48 64 138
-26.7544 16.5921 49.9155 44 61 136
-28.0294 12.866 49.3102 46 61 128
-27.6188 14.8493 48.9239 50 62 118
-25.1787 17.8181 48.6537 76 93 137
-26.5366 16.126 48.0952 110 145 185
-12.3608 28.8231 43.6454 168 197 231
-13.8977 27.7797 43.5486 178 202 239
-16.4322 27.2756 41.6331 177 204 245
-16.8353 27.2302 40.7165 180 199 225
-16.8354 27.3825 39.8229 176 206 246
-16.1883 27.1418 37.5837 184 209 239
-9.37333 29.9497 32.9825 126 155 212
-5.88472 30.7944 32.6798 129 144 175
-8.87206 29.9096 32.5441 122 144 185
-9.27775 29.8636 31.6279 146 173 200
-8.77633 29.8235 31.1888 159 190 219
-9.68322 29.8176 30.7121 168 195 224
-26.2189 16.9001 28.1441 174 197 224
-26.8193 15.7215 28.0574 170 194 220
-26.4644 16.1946 27.6404 162 181 202
-21.1129 21.9041 27.6753 178 203 230
-23.1749 21.0386 27.5686 178 203 237
-25.7027 16.8669 27.2467 129 149 205
-26.7103 15.4878 27.1358 110 137 199
-24.1552 19.685 27.0069 172 182 208
-24.9419 17.5386 26.8533 124 125 192
-25.3486 17.339 26.8305 105 115 182
-27.4356 14.8405 26.6218 74 104 161
-22.0492 22.1857 26.3122 178 202 231
-28.2176 11.0461 25.45 72 95 158
-21.4406 23.3607 25.9508 180 205 236
-22.0668 22.3266 25.8689 179 196 226
-24.3866 20.7518 25.7107 95 106 172
-24.9571 17.8372 25.5091 91 113 144
-25.9984 16.5906 25.4033 99 120 162
-28.0211 10.3985 24.9551 82 104 158
-27.8597 9.8819 24.4669 93 122 165
-28.6814 9.47882 24.4208 82 113 155
-24.313 20.65 24.8012 107 136 184
-25.3259 17.6643 24.5806 97 118 179
-25.9963 16.747 24.5042 89 113 180
-26.5255 15.3071 24.3969 76 97 176
-26.8976 14.9766 24.3662 87 103 193
-27.9282 11.9467 24.1423 95 130 169
-9.9011 29.9032 25.3023 166 196 229
-19.2897 24.1372 24.6986 175 206 231
-20.3554 23.0326 24.6001 178 203 225
-24.9723 18.1356 24.1661 100 110 151
-25.6589 17.362 23.6442 80 95 118
-26.4876 15.3337 23.4886 93 95 120
-26.8241 14.8728 23.4498 88 94 116
-27.3206 13.2947 23.3322 75 85 119
-27.4451 12.0426 23.245 63 91 120
-27.7125 11.3142 23.1898 76 109 136
-27.8737 10.1872 23.1103 85 125 156
-16.7888 25.2266 23.9263 172 197 231
-25.9039 16.657 23.1364 100 108 99
-27.8546 10.2006 22.6529 71 106 147
-14.3438 26.43 23.6119 130 144 195
-26.4497 15.3603 22.5803 101 98 91
-26.715 14.6383 22.5247 100 102 95
-25.6738 17.6607 22.3018 105 102 92
-25.8303 16.5538 22.2214 102 99 91
-27.2811 11.6873 21.8513 107 113 118
-13.6511 27.3588 22.7887 119 144 192
-15.305 26.6926 22.7061 125 150 201
-16.8078 25.5199 22.5913 166 200 230
-25.499 18.7771 21.9298 106 106 97
-26.4628 13.8802 21.5651 97 95 92
-26.9951 12.4286 21.4517 102 102 101
-25.6003 17.5578 21.3879 103 101 92
-25.7925 16.5804 21.3144 100 96 90
-26.2142 14.7479 21.1754 96 94 90
-27.0118 12.5735 21.0042 101 102 104
-27.9562 10.9158 20.8665 112 117 144
-27.0642 12.8498 20.5656 100 102 104
-27.705 11.7901 20.4762 105 108 122
-13.3061 27.9751 21.4865 166 196 235
-24.3691 19.9285 20.6764 113 113 108
-25.6472 16.2172 20.3814 100 98 89
-25.8757 15.3662 20.3151 96 94 85
-26.7789 13.5887 20.1678 99 100 99
-20.2968 23.5337 20.5694 77 94 167
-25.8925 15.5098 19.8696 95 95 92
-26.5656 14.5876 19.7885 96 97 92
-27.809 12.3435 19.5993 102 117 118
-25.3456 16.963 19.5322 103 104 97
-18.4237 25.1866 19.8257 179 201 235
-26.9003 14.2833 18.8472 104 108 113
-27.842 12.6331 18.7058 131 148 172
-20.1298 23.1911 19.1916 85 96 138
-22.7084 20.9053 18.9701 106 125 136
-23.3381 19.8652 18.8797 119 129 156
-24.6738 18.0363 18.7164 108 113 130
-25.4998 16.0103 18.548 132 156 172
-24.6189 17.9202 18.2544 120 125 135
-26.5611 14.902 17.9884 148 158 176
-27.804 12.6598 17.7945 138 162 180
-23.5252 19.0484 17.9068 157 161 167
-25.4619 16.0369 17.6399 144 149 164
-20.0734 23.2307 17.8394 105 131 187
-27.8179 12.9626 16.4469 142 169 206
-18.2551 25.1521 16.6672 178 195 222
-23.0434 19.3008 16.1195 159 172 168
-24.4524 17.7277 15.9702 143 158 188
-22.6723 19.7842 15.2569 159 176 205
-18.2361 25.3184 15.327 179 199 222
-23.0232 19.4694 14.7719 155 174 173
-24.7305 17.3088 14.5678 119 117 121
-22.6345 19.8107 14.3523 133 147 146
-18.1986 25.3448 14.4273 180 202 232
-27.8787 13.8556 12.8664 128 134 150
-11.4502 29.2428 13.953 171 197 228
-24.2479 17.5616 12.7771 109 105 100
-26.7417 14.8617 12.512 127 129 132
-25.6423 15.9966 12.1687 102 95 84
-27.2547 13.4278 11.9262 116 116 113
-27.5925 12.9647 11.8818 115 117 129
-8.31104 29.7755 13.1405 116 155 208
-24.2462 17.7178 11.881 107 104 99
-24.8442 16.5398 11.7711 104 96 91
-26.5968 14.4965 11.5707 97 96 97
-26.6125 12.854 11.4288 100 99 110
-28.1792 11.7874 11.3152 87 98 149
-20.1231 22.8211 11.9256 97 108 158
-25.5686 15.893 11.2498 96 89 85
-26.9672 12.5351 10.9389 105 103 141
-28.4637 11.2042 10.8031 92 110 164
-24.8063 16.5664 10.8633 103 94 94
-25.7782 15.0543 10.718 92 90 96
-27.2507 11.9526 10.4266 88 104 144
-6.63797 30.6082 11.8806 168 192 225
-20.7851 22.0667 10.9456 78 112 179
-21.4856 21.2848 10.8675 110 148 177
-26.06 14.4753 10.2071 95 100 129
-27.2673 12.0976 9.9814 80 103 148
-27.6415 11.7649 9.94722 78 110 140
-28.3902 11.0989 9.8788 100 125 156
-19.2939 23.3856 10.6288 177 197 226
-25.368 15.4117 9.8427 107 109 108
-25.9693 14.227 9.72961 109 110 142
-28.7974 11.0566 8.95403 80 116 148
-21.0236 21.5234 9.53525 78 93 162
-25.7023 15.1076 8.89927 52 85 147
-24.5209 17.6111 8.68527 78 104 154
-26.0199 14.6594 8.39863 77 117 170
-27.2269 12.2828 8.16785 84 100 144
-27.6242 -3.81573 6.69194 171 186 212
-20.5066 21.4924 8.63183 165 181 220
-27.2079 12.2962 7.71166 86 97 155
-28.8109 11.3606 7.60803 124 167 198
-27.7309 -3.23321 5.80641 171 185 205
-20.432 21.3907 7.71643 180 201 233
-25.0075 16.3562 6.74327 82 96 150
-20.4682 21.6736 6.83613 178 202 233
-24.2991 17.302 5.92937 105 133 185
-26.8655 14.8613 5.67227 123 166 201
-20.8736 20.0166 5.76623 176 203 228
-21.4273 20.3324 5.79186 177 203 227
-22.5729 19.4768 5.6993 177 202 228
-23.6472 18.3621 5.58233 173 196 220
-27.1039 -1.4955 3.16779 171 188 206
-22.8382 17.2927 4.575 178 204 227
-25.6185 15.7889 3.49401 174 196 227
-26.1336 15.9795 3.5092 174 196 227
-22.8544 17.5921 3.2381 178 202 228
-26.9336 -1.70311 0.808971 103 103 153
-28.6761 -9.4898 -0.46127 177 174 168
-23.4234 18.2096 1.9318 127 125 187
-24.3916 16.7025 1.77184 108 112 183
-27.8463 -8.91931 -0.871109 142 159 165
-22.4031 19.5962 1.62561 89 92 146
-27.8864 9.17781 0.521376 48 66 121
-21.828 20.9082 1.31068 54 73 135
-21.9956 19.9509 0.756426 51 74 129
-23.3671 21.8591 78.9179 177 207 242
-23.5154 20.2721 78.4772 174 203 234
-24.7729 19.8102 78.3766 174 203 230
-23.4459 20.3129 77.1266 174 201 238
-23.0696 21.5753 76.6911 138 180 223
-23.5815 20.6933 76.2072 170 201 231
4.04346 30.9917 77.9222 132 151 179
-22.5956 21.9147 74.47 58 76 155
-8.72325 29.9031 68.2769 63 72 130
-24.1235 22.9697 66.6903 156 163 196
-25.5268 20.9276 66.1332 116 130 157
-27.9734 16.9522 65.9448 127 137 158
-24.9118 22.689 65.7333 154 186 219
-26.6344 17.3074 65.5902 164 193 224
-4.28361 30.4433 66.7834 86 102 133
-10.0456 28.8816 65.9143 145 177 225
-11.0197 28.801 65.8452 145 177 225
-25.99 18.1155 64.7353 156 198 250
-26.864 16.9575 64.2155 123 158 207
-10.7822 28.4801 64.9549 89 105 161
-26.637 -18.5834 63.5557 131 159 182
-8.17799 30.2847 64.6946 59 74 133
-10.1039 29.1545 64.5537 59 75 135
