ply
format ascii 1.0
element vertex 1390
property float x
property float y
property float z
property uchar red
property uchar green
property uchar blue
end_header
28.5135 -5.54972 111.905 98 14 32
28.9045 -3.2279 111.939 82 24 39
28.7915 -2.16239 111.968 45 21 31
20.6241 11.7486 112.661 89 17 32
21.0082 12.0646 112.65 94 15 33
22.7831 11.6487 112.558 101 17 40
23.801 12.659 112.533 95 55 83
29.2692 -4.4125 111.438 90 15 31
24.8046 11.1054 111.987 100 19 45
23.4343 13.3749 112.101 112 102 127
28.5278 -5.54573 110.99 98 14 33
23.5638 12.7961 111.616 88 57 85
29.0388 -4.2859 110.537 90 12 32
28.6808 -3.09858 110.579 81 21 35
28.5676 -2.03246 110.607 44 23 30
28.6997 -1.08934 110.621 38 30 32
20.7759 12.2041 111.262 90 16 34
22.8048 11.6548 111.16 94 19 41
24.0814 13.5595 111.144 132 149 172
28.5538 -5.03885 109.627 94 16 36
28.5725 -3.03289 109.669 82 21 38
28.4637 -1.46375 109.707 39 23 33
20.7905 12.2082 110.326 83 16 32
23.2078 13.002 110.24 94 58 90
28.3388 -2.40504 109.234 62 19 34
23.3445 13.4518 109.778 114 106 132
26.923 -9.75286 108.681 55 16 21
28.6906 -5.09602 108.705 95 15 36
28.346 -2.40304 108.775 63 21 35
28.2324 -1.33541 108.802 44 28 35
20.5507 12.3457 109.404 92 15 34
23.0859 11.5303 109.283 97 17 38
29.3141 -4.89909 108.226 91 13 31
28.9496 -5.21427 107.777 94 16 36
28.2374 -2.3371 107.864 64 24 38
28.1191 -1.77229 107.881 50 28 39
28.0462 3.83885 107.998 32 18 22
20.438 12.4166 108.475 93 16 32
29.2061 -4.83395 107.318 86 15 33
24.638 13.8205 107.871 136 162 187
29.0885 -5.76972 106.39 84 15 33
29.2204 -4.82996 106.403 84 13 34
28.191 3.78125 106.611 38 19 25
29.1004 -5.26737 105.942 84 15 34
23.2554 11.4762 106.482 96 19 42
29.2346 -4.82597 105.488 85 13 31
20.7288 12.2933 106.123 91 18 35
20.7434 12.2973 105.187 90 17 36
23.2771 11.4823 105.085 94 18 44
29.1336 -4.75878 104.121 86 11 32
23.1656 11.5526 104.159 100 18 44
28.802 -3.06461 102.79 80 24 40
28.8067 -2.56265 102.799 53 18 31
23.6836 11.2918 103.206 103 18 46
24.6952 11.7884 103.184 96 37 78
28.1552 6.39492 102.519 66 14 25
28.8163 -3.06061 101.874 84 23 38
28.8257 -2.05644 101.891 43 22 30
27.3233 9.90019 102.144 101 20 61
28.7149 -1.48989 101.446 30 17 22
28.046 6.46328 101.602 63 16 27
25.83 9.66719 101.721 99 15 34
28.8305 -3.05661 100.958 85 22 37
28.8399 -2.05244 100.974 43 22 31
28.8495 -1.04733 100.991 33 23 27
27.4616 9.83887 101.215 102 19 63
25.969 9.60579 100.79 92 14 33
27.4688 9.84089 100.753 100 19 63
27.8174 -7.5753 99.9939 106 13 34
28.602 -3.42916 99.5835 95 22 39
28.4886 -2.36302 99.6038 61 19 30
28.6207 -1.41973 99.6158 38 23 27
25.8588 9.67528 99.8677 93 15 33
27.4904 9.84694 99.3666 99 21 65
28.3801 -2.29708 98.6906 59 20 34
28.3894 -1.29136 98.7063 43 28 40
25.8732 9.67932 98.941 93 15 34
28.4846 -5.86658 97.7161 105 14 35
28.7437 -4.48577 97.7315 89 14 35
28.2715 -2.23111 97.7769 59 24 38
28.0348 -1.10054 97.7997 45 32 41
24.9115 13.2831 98.0918 139 155 182
24.7933 13.3517 97.6307 139 156 182
28.3762 -5.80157 96.804 105 16 36
28.7579 -4.48177 96.8157 94 13 34
28.2858 -2.22711 96.8594 62 23 34
24.557 13.489 96.7077 138 154 177
28.3001 -2.2231 95.9418 58 21 32
25.2964 10.5307 96.1852 102 18 45
23.9287 12.7966 96.2447 111 82 130
23.6844 12.9318 95.7858 112 85 132
29.1608 -4.65563 94.5173 94 12 31
28.5624 -2.84338 94.5526 75 25 38
28.2943 -6.72826 93.588 109 13 37
27.4261 6.88421 93.7836 60 15 28
25.9525 9.70156 93.8443 83 17 33
28.683 -5.40677 93.1419 97 15 34
28.9302 -6.02743 92.6727 102 16 36
28.9445 -4.52512 92.6919 91 15 31
27.5643 6.8237 92.8579 62 14 26
25.7287 10.3497 92.4657 95 17 43
27.945 6.12701 91.9217 63 15 26
29.0883 -4.58042 91.3163 91 13 30
28.0757 6.06473 91.4585 64 15 27
25.2396 10.1051 91.5412 97 15 37
28.7374 -3.39117 90.8768 93 22 39
28.8648 -2.95092 90.8807 85 24 40
28.09 6.06875 90.5367 63 15 24
28.7517 -3.38717 89.9603 93 21 39
28.7611 -2.38292 89.9718 60 18 31
28.7705 -1.3777 89.9834 34 21 29
28.5371 -2.25305 88.5995 57 20 31
28.3006 -1.12276 88.6134 46 32 41
29.011 -5.00616 88.1085 91 15 31
29.1381 -4.56644 88.1124 93 15 32
20.8754 11.9213 88.3399 88 17 33
29.1404 -5.06532 87.6495 93 13 34
28.1828 -2.06301 87.6861 60 21 37
24.816 12.9475 87.8612 132 139 179
29.03 -4.50115 87.1982 98 13 31
18.5875 12.0937 87.4166 63 15 30
19.1021 12.3438 87.4168 65 16 31
28.7827 -5.37881 86.7326 97 13 31
18.9814 12.4129 86.9486 69 14 30
24.1992 12.7707 86.9318 115 98 152
29.0299 -5.99948 86.2679 103 17 36
28.917 -4.93698 86.2787 98 14 32
20.523 12.1296 86.4716 79 19 33
28.9289 -4.43382 85.8256 98 14 35
28.5705 -3.24584 85.8378 92 23 41
17.8394 12.5022 86.0132 70 16 29
29.0441 -5.99549 85.353 103 16 36
28.804 -5.37281 85.3591 98 13 32
29.0584 -4.49316 85.3669 98 14 35
28.705 -2.80337 85.3832 75 25 38
25.3374 10.6431 85.5138 80 18 40
29.0656 -4.49116 84.9091 97 15 34
28.5848 -3.24184 84.9209 87 23 39
18.3675 12.2379 85.0696 73 14 26
19.1386 12.3541 85.0701 79 14 27
28.9407 -5.42991 84.443 98 12 34
28.7193 -2.79937 84.4663 68 24 39
25.4768 10.5813 84.5849 100 18 45
24.8706 13.4751 84.6106 134 154 179
27.8258 -6.88318 83.9718 108 13 38
28.9479 -5.42791 83.9853 97 12 35
19.1532 12.3582 84.1314 88 14 31
29.3268 -5.10848 83.5308 93 14 31
29.2093 -4.54647 83.5354 94 15 32
28.6015 -3.73787 83.5412 93 17 33
28.618 -2.73156 83.0911 70 26 37
28.9644 -5.92259 82.6082 103 16 38
28.6204 -3.23184 82.6285 86 22 40
28.9859 -4.41784 82.1623 98 15 36
28.6323 -2.72755 82.174 76 26 40
18.542 12.7017 82.2541 90 14 30
29.3552 -5.1005 81.7009 97 15 35
28.7574 -3.28952 81.7117 90 23 39
28.2756 -2.03698 81.7189 47 17 26
29.1225 -4.47518 81.2466 96 15 34
18.6849 12.6387 81.3144 89 15 32
29.3695 -5.09651 80.7859 91 14 34
28.7716 -3.28552 80.795 88 22 41
28.2899 -2.03297 80.8008 47 15 27
24.913 11.4393 80.8749 88 30 70
29.1368 -4.47119 80.331 95 15 35
16.3805 13.3352 80.3633 79 16 30
28.7859 -3.28152 79.8783 91 21 40
29.0286 -4.40585 79.4147 96 14 33
28.7978 -2.77737 79.4232 76 26 42
29.2756 -5.02738 78.9552 91 14 33
28.8001 -3.27752 78.9615 89 23 38
28.9204 -4.3405 78.498 95 15 33
28.812 -2.77337 78.5062 78 28 41
28.9251 -5.33886 77.5764 92 12 33
28.8215 -3.27152 77.5865 87 23 39
29.1818 -4.95823 77.1236 91 14 33
28.8192 -4.27311 77.1227 95 16 35
28.956 -2.82916 77.132 73 27 41
28.7132 -3.20583 76.6684 84 22 39
28.0216 2.20678 76.6865 34 22 29
28.1816 6.19338 76.7087 61 14 26
29.1961 -4.95424 76.2083 89 14 32
28.8335 -4.26912 76.2065 92 17 35
28.8477 -2.76337 76.2139 67 27 40
28.0242 1.70351 76.2238 38 25 32
28.7274 -3.20183 75.7515 72 23 36
28.2501 -1.44557 75.7525 28 25 32
28.6941 6.44719 75.7952 72 13 26
28.9607 -5.32887 75.2873 85 14 29
29.2103 -4.95025 75.2928 84 15 32
28.7252 -4.2037 75.2885 85 19 34
28.8619 -2.75937 75.297 58 24 37
28.4916 -3.57668 74.8289 85 18 36
28.2597 -1.94486 74.8319 35 16 23
28.3013 2.59362 74.8513 42 26 32
28.8318 6.38689 74.8756 71 13 26
29.1022 -4.88505 74.3756 86 14 33
28.6167 -4.13823 74.3702 86 16 36
28.7536 -2.69354 74.3782 59 25 37
28.397 -2.00293 73.9156 36 19 24
28.5292 -1.05866 73.9214 32 29 32
28.1924 2.66097 73.9291 44 26 32
28.9692 6.32665 73.9565 74 14 28
28.0671 1.71556 73.4631 51 35 38
26.2349 -10.4978 72.9277 86 27 33
28.2883 -1.93684 72.9954 37 20 25
29.0082 -4.81582 72.542 89 17 34
28.421 -2.49788 72.078 67 24 39
28.3768 6.14918 72.1011 69 15 25
29.152 -4.87107 71.1709 94 13 34
28.5146 6.08893 71.1819 67 15 27
28.5217 6.09094 70.7212 67 15 27
29.1663 -4.86707 70.2553 95 13 36
29.0557 -4.30253 69.7955 97 17 38
27.9738 -1.23266 69.7735 39 25 35
29.1709 -5.86469 69.338 95 17 34
29.0604 -5.30091 68.878 90 14 30
29.07 -4.29854 68.8794 95 17 34
28.0272 2.30617 68.3991 38 25 30
28.4479 -6.49473 67.9438 102 15 37
29.0747 -5.29692 67.9623 88 13 33
29.2067 -4.35591 67.9667 94 16 33
28.0343 2.30818 67.9388 38 24 32
29.1057 -2.78717 67.5065 81 30 45
28.2016 6.29793 67.4851 60 16 26
29.1081 -3.28721 67.0479 90 21 38
28.309 3.7026 67.0262 38 22 26
25.8249 -12.2329 66.489 76 41 25
29.2184 -5.35203 66.5926 92 12 33
29.3504 -4.41127 66.5967 97 15 34
28.1791 2.25095 66.5615 35 22 27
28.2001 3.77026 66.1015 39 22 24
29.2327 -5.34804 65.6772 87 12 32
29.3647 -4.40727 65.6811 93 16 35
23.5188 12.3683 65.4877 95 46 74
29.014 -3.21753 65.2108 82 21 36
28.0727 1.81483 65.1769 45 30 34
28.0773 2.32023 65.1768 38 25 30
28.091 3.83796 65.1763 38 20 25
29.2469 -5.34404 64.7618 84 13 28
29.3789 -4.40328 64.7655 94 17 36
28.0982 3.83997 64.7156 34 19 23
24.0404 12.6204 64.5722 109 88 120
24.8016 13.2487 64.5972 134 156 183
29.122 -6.28236 64.3006 95 17 34
29.1461 -3.777 64.2988 94 18 34
29.2782 -2.83497 64.3023 69 29 42
28.2518 6.31201 64.2573 66 14 29
29.2611 -5.34005 63.8464 85 12 29
29.5155 -4.4606 63.8542 91 18 35
29.158 -3.27322 63.8401 79 22 37
28.2637 6.82148 63.7957 72 13 28
24.4282 11.9115 63.6546 96 46 81
24.4357 12.9388 63.6535 131 134 160
25.5758 13.8798 63.6923 133 156 177
29.1362 -6.27837 63.3854 95 17 34
29.4149 -2.89271 63.3903 66 28 37
24.9295 10.6234 63.2089 99 16 44
29.1434 -6.27637 62.9278 94 14 35
29.2754 -5.33606 62.931 87 12 32
29.5297 -4.45661 62.9388 93 16 35
29.2947 -3.33086 62.9282 80 20 36
29.0593 -2.20297 62.9176 42 17 27
24.5682 11.8493 62.7286 95 46 79
24.5758 12.8763 62.7271 131 138 162
25.5863 13.3706 62.7632 134 157 179
28.5274 6.19141 62.4224 64 16 26
23.4331 10.9066 62.2224 94 16 34
27.8716 1.44977 61.9466 46 36 38
24.5827 11.8533 61.7981 92 50 83
24.5902 12.8803 61.7961 131 139 163
29.2967 -5.33007 61.5579 89 13 29
29.5511 -4.45062 61.5657 94 18 34
29.3161 -3.32486 61.5538 87 22 36
28.6651 6.13115 61.5056 64 14 27
29.2942 -6.32923 61.1025 97 15 35
24.5972 11.8574 60.8676 95 52 87
24.7302 12.8179 60.8703 132 143 163
29.6727 -6.00953 60.6591 91 18 35
29.5653 -4.44663 60.6503 94 17 36
29.3304 -3.32087 60.6375 86 22 38
27.8794 -0.0590877 60.5693 35 26 35
29.3181 -5.32408 60.1848 89 16 32
24.6116 11.8614 59.9371 89 53 87
24.6192 12.8885 59.9342 128 141 160
29.687 -6.00554 59.7446 89 16 31
29.6968 -5.0047 59.7417 90 14 28
29.2222 -3.25522 59.7159 85 20 34
24.8621 10.7055 59.4859 87 19 52
25.132 13.1378 59.4892 130 157 175
29.5817 -4.94154 59.2788 92 14 32
28.713 -6.51563 58.7888 96 16 36
29.2171 -5.25697 58.8061 91 14 33
29.2268 -4.25457 58.8028 96 14 35
24.2529 11.553 58.5259 74 29 61
25.9015 13.2558 58.5915 130 156 178
29.1258 -2.68536 58.3337 76 28 43
23.1202 11.1235 58.0114 72 19 35
24.633 10.8436 58.0798 73 19 52
24.6444 12.383 58.0742 100 100 140
29.2313 -5.25297 57.8905 89 15 28
29.241 -4.25058 57.8867 94 17 31
24.6516 12.385 57.6088 100 98 139
29.1401 -2.68136 57.4167 77 29 40
24.7729 10.7816 57.1558 72 20 52
24.149 11.6253 57.1234 70 27 60
29.2456 -5.24898 56.9749 91 15 31
29.1328 -4.18517 56.9646 93 17 33
28.2015 1.85097 56.8928 42 29 33
23.52 10.931 56.6313 75 17 29
24.5368 11.942 56.6741 83 54 95
5.20275 -13.0709 55.411 64 38 41
29.1207 -6.18755 56.5154 93 13 33
29.027 -3.11782 56.4959 84 21 36
29.1543 -2.67736 56.4998 74 26 41
24.3998 9.44575 56.2141 66 15 28
24.4185 12.0103 56.2025 89 57 98
24.0488 13.2379 56.1788 129 143 168
5.34299 -13.1303 54.9429 71 45 53
28.2205 2.3604 55.97 35 24 28
24.5513 11.946 55.7434 91 56 98
29.135 -6.18355 55.6 94 15 35
29.1446 -5.18184 55.5951 90 14 33
29.0317 -4.11773 55.5839 93 17 36
28.223 1.85699 55.5121 40 28 32
24.5397 9.38416 55.2908 75 16 29
23.7935 10.8049 55.2466 91 18 35
24.1891 13.1753 55.2533 131 144 168
29.0532 -2.60951 55.1179 64 26 39
24.6912 11.8838 54.8193 95 59 102
29.022 -6.61929 54.6807 93 16 34
29.0364 -5.11666 54.6727 83 15 32
29.0459 -4.11373 54.6674 88 19 35
26.6725 7.76776 54.4781 68 14 27
24.8278 12.3328 54.358 115 105 150
28.0025 2.49509 54.1152 48 34 37
29.0363 -6.61529 53.7653 92 17 35
29.1682 -5.67483 53.7663 81 17 33
29.0602 -4.10973 53.7509 87 20 36
24.4694 13.0501 53.4036 132 145 170
27.9849 -1.03574 53.2153 29 23 27
29.1873 -5.16986 52.8476 81 15 34
29.0745 -4.10573 52.8344 77 19 35
21.3058 11.629 52.3106 83 16 30
24.2326 13.1874 52.4577 131 146 172
29.2015 -5.16586 51.9317 80 15 34
29.0887 -4.10173 51.9179 75 16 29
28.8578 -2.47172 51.8934 56 25 33
21.1933 11.6997 51.3674 84 16 30
25.9852 10.2135 51.6435 93 18 58
24.3616 11.5834 51.5437 88 28 74
29.1054 -3.09582 51.4528 73 20 34
23.1029 11.2203 51.0098 91 18 35
21.0808 11.7704 50.4237 83 15 29
29.2229 -5.15987 50.558 82 15 32
29.1101 -4.09574 50.5431 87 18 35
23.4956 11.0256 50.1005 90 18 35
26.1316 10.1539 50.2595 92 18 59
29.122 -3.59189 50.0811 86 19 34
21.0954 11.7745 49.4875 85 15 33
29.4721 -6.27933 49.6654 86 16 32
29.2372 -5.15587 49.6421 83 16 31
29.2468 -4.15319 49.6344 88 18 34
29.2565 -3.14954 49.6267 74 20 34
26.0212 10.2237 49.324 90 19 58
15.2494 -13.5578 47.9476 55 20 28
29.6036 -6.83627 48.7625 92 18 35
29.2514 -5.15188 48.7263 84 16 32
29.2611 -4.14919 48.7181 89 19 37
29.3933 -3.20724 48.7179 74 21 36
27.8144 -0.386266 48.5972 56 47 52
23.6505 10.9676 48.2446 89 19 33
15.2552 -14.0646 47.4851 51 18 26
29.2657 -5.14788 47.8105 86 15 33
29.2753 -4.14519 47.8018 89 18 33
29.4075 -3.20324 47.8014 78 24 35
15.2697 -14.0605 46.5514 54 26 45
29.2799 -5.14388 46.8946 87 16 32
29.2896 -4.1412 46.8856 91 18 35
29.4218 -3.19924 46.8849 75 21 35
15.2915 -14.0544 45.1509 73 41 41
29.1477 -7.58191 45.9938 96 14 32
29.4165 -5.20104 45.9874 86 16 31
29.436 -3.19524 45.9685 68 21 33
15.43 -13.0949 44.6829 75 44 51
29.9174 -4.94282 45.5597 89 14 32
29.5705 -2.753 45.5141 49 24 35
25.7117 10.4391 45.122 68 23 56
24.8394 11.4133 45.0541 64 34 74
15.306 -14.0503 44.2173 75 43 47
23.8343 10.9177 44.5263 72 20 31
15.3148 -13.5395 43.7451 72 47 53
29.4379 -5.19505 44.614 86 16 31
29.3252 -4.1312 44.5949 88 21 35
24.9792 11.3512 44.133 73 34 75
25.8083 -11.4549 43.9753 53 16 24
14.943 -13.8635 42.788 67 33 32
29.4521 -5.19106 43.6984 84 17 35
29.3395 -4.1272 43.6786 82 21 39
26.8453 7.81622 43.3713 61 15 24
14.1863 -13.4972 41.7947 57 17 25
24.4632 -11.2913 42.4987 60 12 22
29.5887 -5.2482 42.7921 80 16 30
29.3537 -4.12321 42.7623 78 18 31
29.3634 -3.11954 42.7513 61 21 32
29.2506 -2.05293 42.7308 35 18 26
26.7353 7.88523 42.4362 67 15 27
28.9647 -6.94439 42.3093 79 17 32
28.9718 -6.94239 41.8515 82 15 31
29.7251 -5.3053 41.8864 83 16 32
29.368 -4.11921 41.846 86 19 36
26.6254 7.95426 41.5006 67 13 25
24.6088 -11.3453 41.1276 72 15 25
29.6171 -5.24021 40.9613 83 16 31
29.2646 -3.5519 40.914 82 23 38
27.8173 0.215384 40.7593 45 36 41
24.7472 -11.4013 40.2172 70 14 25
29.5069 -4.67597 40.4876 87 16 32
25.5532 12.1303 39.9762 124 129 170
29.2788 -3.5479 39.9972 83 23 40
27.9504 -0.348125 39.855 50 37 39
24.7615 -11.3972 39.2969 72 13 27
29.7607 -5.29531 39.5984 84 14 33
29.1683 -2.98206 39.5224 69 20 36
27.8414 -0.28148 38.9244 58 47 48
24.7758 -11.3932 38.3767 70 14 26
29.7749 -5.29132 38.6832 85 17 32
24.783 -11.3912 37.9166 71 14 27
29.5349 -6.16657 37.7602 85 18 34
29.667 -5.22623 37.7574 83 15 30
28.8288 -2.7886 37.6562 71 25 37
24.7973 -11.3872 36.9963 71 14 24
29.5589 -5.1611 36.8312 83 17 31
27.0847 7.78358 35.978 68 16 26
29.0596 -7.41686 35.9071 95 18 34
29.5732 -5.1571 35.9156 86 16 33
24.7018 -11.3192 35.1446 71 14 24
29.1051 -3.40462 35.3913 76 27 40
29.3379 -5.53187 34.9848 81 18 33
28.2195 6.19274 34.2466 59 15 24
29.1265 -3.39862 34.0156 62 24 35
29.1313 -2.89625 34.008 49 23 30
25.6544 12.1587 33.469 153 151 149
29.3592 -5.52588 33.611 83 18 35
29.1336 -3.39662 33.557 67 23 35
28.4809 6.06808 33.3472 61 16 25
26.2738 10.2945 33.0875 80 29 39
29.1455 -2.89225 33.0906 58 23 33
29.0325 -1.8247 33.0632 32 23 30
25.7939 12.0965 32.5514 150 154 153
29.2511 -5.46079 32.6834 84 16 30
29.1479 -3.39262 32.6399 77 25 37
29.1454 -4.39461 32.1974 93 18 35
29.1598 -2.88825 32.1732 66 25 35
29.0467 -1.82069 32.1451 37 24 30
29.1381 -5.89683 31.7634 88 16 35
29.2847 -3.45028 31.7348 83 25 38
28.5096 6.07612 31.5023 60 16 23
29.2822 -4.45202 31.2928 91 17 35
29.1741 -2.88425 31.2559 69 25 37
29.061 -1.81669 31.2271 39 23 34
29.1716 -3.88673 30.8139 91 19 37
27.9931 2.2817 30.598 48 32 36
29.0753 -1.81268 30.3091 38 25 28
27.9911 1.27217 30.1544 41 26 28
28.2841 6.21086 30.0936 60 18 26
19.4909 11.8296 29.1837 73 17 28
26.7239 13.1819 29.8259 168 171 158
29.3084 -3.94426 29.9095 91 19 34
29.08 -2.81442 29.4085 70 23 34
27.8911 2.35109 29.2029 41 28 30
25.7105 10.1297 28.8569 89 21 39
29.3275 -3.43828 28.984 84 23 38
23.7068 10.6735 28.1926 87 19 37
29.9166 -6.74849 28.6428 89 21 35
29.8094 -5.18629 28.6034 85 16 31
29.0943 -2.81042 28.4909 69 25 37
23.8472 10.6114 27.2738 86 19 35
29.9308 -6.7445 27.7283 90 19 35
29.3489 -3.43227 27.6086 85 27 41
29.3123 -7.93959 27.2331 99 17 34
29.9479 -5.74201 27.2526 83 17 31
27.6888 3.50129 26.8532 41 25 28
26.246 9.87716 26.5889 87 24 49
29.1971 -7.87712 26.7624 99 18 36
29.945 -6.74051 26.8137 89 20 35
29.2406 -3.36661 26.6784 84 26 37
29.9621 -5.73802 26.3376 84 16 32
29.13 -2.80041 26.1969 71 27 37
23.7467 10.1719 25.4061 78 19 33
24.3791 10.3556 25.4652 81 22 42
26.3893 10.3269 25.6651 83 45 66
29.9592 -6.73652 25.8992 91 19 36
29.1275 -3.80318 25.7573 90 18 35
26.766 9.62107 25.2523 79 28 54
29.2185 -7.87114 25.3897 99 18 34
27.4922 6.17588 24.9311 56 19 27
23.1277 9.99205 24.4142 71 20 30
29.8514 -6.67181 24.971 91 19 34
24.02 10.0462 24.0366 76 20 31
26.9049 9.55964 24.3394 84 29 54
27.8702 -8.70379 24.3524 99 23 35
29.2327 -7.86714 24.4745 99 16 35
29.043 -2.72854 23.889 83 22 38
26.7948 9.62916 23.3985 85 27 52
27.8845 -8.69979 23.4355 102 24 35
22.2722 10.4629 22.447 79 20 30
26.802 9.63118 22.935 89 26 52
28.7904 -5.61257 22.5459 88 19 34
29.2451 3.26451 22.4019 58 18 26
23.1643 8.97668 21.6374 74 18 25
22.2867 10.4669 21.5127 86 19 30
29.3899 4.7203 21.9246 69 16 24
28.8094 -5.10686 21.6184 90 19 35
29.3727 2.19476 21.5175 67 18 29
23.4381 8.85143 20.269 88 17 31
22.9405 10.1424 20.1866 94 19 34
28.6963 -5.54343 20.6973 88 21 34
28.9749 -2.14959 20.6511 87 18 35
29.1122 -0.701537 20.6334 84 19 32
29.6227 1.06368 20.649 79 20 30
30.0106 2.89219 20.65 81 19 30
27.9344 -8.68579 20.2262 103 21 40
29.381 -2.82621 17.9539 96 20 37
29.5001 -6.88928 15.7722 74 29 26
24.5629 7.8498 12.4966 27 24 22
28.6666 -8.45513 12.9608 30 23 26
28.5608 -8.88918 11.5828 37 24 26
25.2259 8.55494 10.6968 24 22 20
25.2338 9.57884 10.6701 24 24 23
-25.227 -16.876 4.62031 68 36 31
25.2253 7.53405 10.2592 23 23 22
25.2404 8.55899 9.76767 22 25 23
25.3734 9.51726 9.75804 23 26 24
18.5308 -15.6597 9.1249 97 54 38
25.2398 7.53811 9.33047 22 23 21
25.505 8.43235 8.87403 24 25 22
25.1291 7.60727 8.3839 23 24 21
25.3944 8.50173 7.92736 23 24 21
25.6525 9.39418 7.93526 23 26 22
25.3897 6.97018 7.50526 25 23 21
24.7679 7.80685 7.40067 25 23 21
25.2719 7.03713 7.02295 24 22 20
24.6569 7.87616 6.45272 23 23 23
24.9115 8.25746 6.47503 23 24 21
25.1658 8.63858 6.49732 26 24 22
25.1613 7.10618 6.07606 22 23 20
24.8006 8.32688 5.52686 24 25 19
25.1757 7.11023 5.14737 25 24 21
25.0623 8.71009 5.08459 25 26 23
24.6859 7.88428 4.59307 23 24 21
25.0695 8.71212 4.61978 25 26 23
25.1902 7.11428 4.21867 26 24 22
26.4435 -8.7742 4.40751 66 46 45
26.702 -8.39112 3.97039 62 52 38
25.2046 7.11833 3.28997 25 26 23
24.8329 7.8251 3.21747 25 26 23
25.9549 -9.5329 3.44237 67 55 45
22.8132 -13.5602 2.67238 105 99 114
25.3191 -12.2423 2.97786 62 58 66
25.3481 7.56849 2.36523 41 53 21
23.0739 -14.1781 1.80336 120 107 114
23.704 -13.4707 1.86913 110 99 106
24.5854 -12.3816 1.95799 91 84 89
25.8567 -8.96388 2.02784 39 35 45
25.2375 7.63767 1.41697 74 87 48
24.0881 -13.1451 1.45096 116 101 101
25.2486 8.15118 0.936796 105 110 83
23.8357 -14.5302 0.998016 139 118 107
23.5903 -13.9094 0.943434 138 116 107
25.2519 7.64172 0.488053 131 117 86
27.2826 5.47735 149.654 62 70 98
27.4325 7.76613 149.67 30 33 23
27.4977 4.49476 149.158 69 110 145
28.185 2.46108 148.595 16 18 28
27.3728 4.53228 148.715 45 70 74
27.2694 5.02491 148.733 57 81 78
27.5827 7.73579 148.737 36 35 28
28.2365 1.0591 148.112 16 19 18
28.9048 -3.27976 147.521 24 28 26
28.5536 -0.409438 147.6 47 43 31
27.9358 2.53505 147.709 14 19 31
27.2562 4.57247 147.813 51 64 92
27.0493 5.55821 147.849 74 79 117
27.4661 7.77674 147.835 33 34 24
28.1203 1.09838 147.212 16 19 18
28.5703 -0.404146 146.686 31 28 27
27.9525 2.54034 146.793 5 29 22
27.273 4.57777 146.895 105 113 110
27.0361 5.10556 146.928 85 99 95
27.4829 7.78205 146.918 30 32 26
28.9299 -3.27183 146.15 34 36 27
28.1371 1.10368 146.296 16 17 21
28.0939 2.50864 146.321 5 30 21
28.8523 -0.466019 145.742 31 26 26
28.1023 2.51129 145.863 5 29 16
28.1539 1.10898 145.381 16 18 20
27.8314 2.13075 144.514 16 18 20
28.7783 -0.413926 142.556 46 31 33
28.1011 1.61586 142.651 18 18 22
29.735 -8.51723 141.894 40 34 26
28.6624 -0.375043 141.655 37 36 31
28.4436 2.46648 141.715 13 21 22
26.6379 14.1364 141.591 139 170 184
29.466 -8.90148 140.549 53 33 31
28.9574 -2.29497 140.687 23 24 17
28.5464 -0.336126 140.753 32 22 20
28.0016 1.66059 140.833 15 17 19
28.4604 2.47178 140.799 8 25 38
27.722 3.5928 140.886 49 85 96
27.5155 4.57738 140.919 92 119 141
27.5455 5.03501 140.922 70 95 121
26.6547 14.1417 140.672 137 170 187
29.7767 -8.50404 139.614 35 22 18
28.6959 -0.364459 139.825 37 35 29
28.0184 1.66589 139.917 15 18 19
28.2113 2.54573 139.91 13 23 15
27.7388 3.5981 139.969 38 47 35
27.5107 4.12769 139.54 17 21 19
27.6006 5.50062 139.55 18 18 21
28.8453 -0.392765 138.898 39 31 23
28.1466 1.18271 138.527 17 18 19
27.5708 2.72563 138.601 15 17 20
27.6308 3.64069 138.607 13 20 20
27.4241 4.62553 138.639 19 22 19
27.4841 5.54104 138.646 24 21 21
27.2773 6.52725 138.678 17 19 21
27.1821 7.02337 138.235 17 19 21
29.1056 -0.90811 137.498 49 36 32
28.8704 -0.38483 137.526 39 30 29
27.4543 2.76536 137.697 15 17 18
27.3809 3.71533 137.716 7 23 31
27.3075 4.66574 137.735 50 59 71
27.2341 5.61661 137.754 47 41 46
24.9273 9.96811 138.022 16 21 20
29.1828 -6.01948 136.968 14 18 20
28.0388 1.22469 137.166 16 19 17
27.0053 6.14781 137.323 22 18 14
25.7864 8.3388 137.462 15 20 19
27.3677 3.26288 136.795 14 17 19
27.3243 4.67105 136.817 41 46 48
27.2509 5.62192 136.836 38 35 38
28.0555 1.22999 136.25 15 18 18
28.2484 2.10994 136.244 15 17 17
27.3461 2.80778 136.333 15 17 19
25.1399 8.52656 136.143 15 19 19
23.8516 9.80929 136.274 17 19 21
29.4509 -6.52889 135.114 16 17 18
27.1561 3.798 135.447 15 17 19
25.9242 7.85437 135.606 14 19 18
29.3354 -6.49153 134.213 15 18 16
26.3738 5.88704 133.706 16 16 19
26.3 6.84002 133.724 15 17 19
23.6983 8.93693 133.97 15 17 19
29.97 -7.55155 132.324 19 19 19
28.2855 1.67414 132.577 14 16 18
29.3046 -5.53463 131.948 17 19 12
29.9867 -7.54627 131.412 18 18 18
29.4321 -6.01471 130.563 12 18 15
29.4489 -6.00943 129.65 14 18 16
29.5978 -6.03634 128.727 15 16 16
24.0038 9.85739 127.96 17 20 18
24.0642 10.7793 127.967 16 22 23
24.8831 8.23046 126.495 16 20 23
24.2993 9.79263 126.554 15 19 22
25.0724 10.9942 126.053 17 23 50
24.3908 8.84036 125.615 22 23 21
24.4512 9.7616 125.621 25 24 25
24.5116 10.6828 125.628 23 24 29
24.2728 8.88185 124.701 90 52 19
24.303 9.34257 124.705 92 53 22
27.5245 6.15688 123.532 34 34 32
25.8634 14.0793 123.732 140 167 184
25.6148 8.06956 123.221 40 14 22
25.25 8.63987 122.791 60 16 29
29.454 4.26846 122.012 53 17 28
29.2999 3.84937 121.56 63 18 29
25.5357 8.57318 121.851 80 19 34
29.3382 4.30846 121.106 71 14 29
29.1841 3.88929 120.654 90 16 36
29.6199 4.24434 120.174 93 16 35
28.8458 2.59357 119.746 104 18 38
29.3334 3.85996 119.731 101 17 35
28.5539 6.38873 119.805 97 18 39
29.6366 4.24962 119.26 98 20 37
29.0337 5.33684 119.308 94 22 39
28.9952 2.56453 118.823 108 16 38
29.1147 2.07895 117.896 99 16 37
29.9348 4.19084 117.416 84 21 37
30.5692 -0.601256 116.873 89 16 33
29.8237 2.36945 116.946 83 18 33
29.7083 4.71908 116.977 77 20 35
29.1354 6.26363 117.026 80 20 36
24.9031 10.1974 117.301 105 18 40
29.8918 3.2841 116.496 71 22 36
29.3492 5.28277 116.546 75 20 36
25.225 8.71059 116.807 98 17 39
30.6535 -5.7005 115.904 97 16 38
30.454 -0.562511 115.969 42 21 28
28.9212 2.6174 115.627 39 21 27
28.981 3.53094 115.633 46 20 25
30.7 -5.2403 114.995 88 19 36
29.6265 7.08152 115.179 103 16 37
28.4795 1.81161 114.727 31 18 26
28.5394 2.72581 114.733 31 18 25
28.5993 3.64001 114.739 35 17 25
29.908 7.01608 114.251 96 17 36
28.5993 1.32575 113.801 40 29 35
28.4233 2.76552 113.824 37 25 31
28.4832 3.67994 113.83 36 19 23
28.4831 1.36512 112.892 44 35 37
28.44 2.77082 112.908 41 29 35
28.5168 6.00646 112.937 71 17 31
29.6468 6.64096 112.432 82 17 33
28.5298 1.82751 111.979 40 30 34
28.2938 2.35322 111.995 41 31 35
29.7876 6.60833 111.968 81 17 31
28.8545 6.40644 110.637 69 16 29
28.4089 1.41775 109.691 36 24 31
28.2926 3.7731 109.719 32 20 30
29.7994 -2.17885 109.141 45 28 40
29.0124 6.37913 109.257 65 15 30
24.9723 11.2002 109.471 96 33 72
29.3379 -1.13086 108.713 49 41 43
28.3094 3.7784 108.803 31 22 26
26.156 9.96233 107.57 106 19 40
25.8658 9.57792 107.117 104 17 41
28.6341 3.72764 105.584 38 19 25
26.1897 9.97298 105.728 97 21 41
28.6209 3.27573 104.665 35 20 26
28.6078 2.82382 103.746 39 25 33
28.6377 3.28103 103.749 34 18 25
29.1214 6.41356 103.304 69 16 31
28.5347 1.4575 102.82 51 37 39
28.6245 2.82912 102.829 40 27 34
28.6844 3.74354 102.836 36 19 26
29.3952 6.34571 102.838 71 15 30
28.6413 2.83442 101.913 39 27 33
28.7012 3.74884 101.919 36 22 27
29.6854 6.28321 101.457 68 17 31
28.791 2.8053 100.993 36 24 31
28.8293 3.26504 100.538 34 22 29
29.2445 5.48043 100.547 51 18 26
29.009 6.00763 100.557 55 18 26
29.8428 -2.0902 99.5516 44 28 33
28.5203 2.4248 99.6229 35 26 30
28.876 3.72744 99.6253 32 20 25
29.8513 6.25859 99.6231 61 14 23
29.137 5.52342 99.1766 57 16 24
28.4772 1.51547 98.7 36 25 31
28.73 3.31018 98.7095 34 24 27
29.7356 6.29908 98.7118 71 16 26
24.3268 11.021 98.876 104 28 51
29.0209 5.56379 98.2641 58 15 26
23.0111 11.8539 98.4502 97 46 75
28.6269 1.48665 97.7805 39 23 35
29.4873 6.37483 97.8031 72 16 29
24.2086 11.063 97.955 103 29 48
23.0196 11.8565 97.987 97 49 72
28.5527 6.17236 96.4465 65 15 28
23.452 11.7537 96.5888 98 47 77
28.5443 3.85264 95.9694 42 23 26
28.7241 6.59719 95.9885 70 17 29
22.8269 10.5171 96.1273 105 20 42
23.7931 10.2661 95.183 102 20 43
25.1738 10.3619 95.161 105 21 45
24.2593 11.0791 95.1818 101 29 50
23.8839 11.6509 95.1926 96 48 77
28.5695 3.86059 94.5944 36 21 26
28.4533 6.21823 94.6151 53 19 28
24.2158 10.1619 94.251 98 19 38
24.1496 11.1238 93.7974 102 30 50
23.9177 11.6617 93.3425 98 52 79
23.948 12.1233 93.3457 111 94 119
28.5731 3.41378 92.7578 39 22 27
24.6549 10.0631 92.3966 100 17 39
28.6629 2.46986 91.8331 44 32 39
28.6198 3.8765 91.8444 39 19 28
29.9635 -2.49863 91.324 54 21 31
29.3393 6.48243 91.3988 73 15 28
23.6807 11.7462 91.4957 99 52 82
28.5467 2.50953 90.9181 40 31 36
13.2666 11.2397 91.1249 81 18 30
15.9543 10.999 91.0983 88 18 32
29.0606 6.10113 90.4826 68 18 29
13.2838 11.2452 90.1825 83 18 32
15.6928 11.079 90.163 90 17 33
17.3904 11.0998 90.1503 97 18 36
29.9969 -2.48806 89.4963 55 20 28
28.6749 2.0258 89.5388 38 26 33
28.6318 3.43234 89.5495 35 23 30
29.7706 6.38724 89.5638 75 16 33
22.6591 12.5157 89.6574 116 99 127
17.3769 10.6383 89.2114 88 14 33
28.3225 2.59156 88.6283 37 28 33
29.7573 -2.41394 88.1272 61 23 39
29.1026 6.11438 88.192 65 18 30
19.7691 10.4812 88.2643 92 19 39
23.1068 10.5259 88.2501 104 21 46
28.3825 1.18987 87.7009 48 33 40
29.6417 -2.37554 87.2135 61 23 39
28.5922 2.07597 86.7899 35 27 32
29.5343 -2.33448 85.8421 51 22 32
28.2397 2.6419 85.8773 37 27 31
24.9686 10.9857 85.9367 90 33 61
29.8801 -3.34342 85.3779 90 24 43
29.8885 -3.34078 84.9208 87 24 44
29.4185 -2.29603 84.9274 43 19 29
28.4328 1.20578 84.9503 52 36 42
28.3897 2.61278 84.9599 44 30 37
24.9939 10.9938 84.5514 99 33 69
29.3111 -2.25493 83.5548 40 18 28
29.8921 -3.78631 83.0896 98 19 39
29.1952 -2.21645 82.6391 43 18 29
29.6312 6.49747 82.6993 79 16 30
29.7806 6.4675 81.7844 79 16 32
29.2451 6.15944 80.4041 71 18 30
15.1454 10.8538 80.301 84 17 34
17.678 10.6527 80.3236 89 18 36
28.6151 2.60756 79.917 40 30 33
28.808 3.48802 79.9245 36 22 25
29.9465 6.44283 79.9548 73 17 29
15.3022 10.822 79.3628 78 19 31
30.1295 -3.33928 78.9809 89 24 44
29.3221 -1.28172 78.9841 53 41 53
29.1166 -0.30088 78.9878 78 63 68
29.7067 6.5213 78.5792 66 18 32
17.8506 10.6265 78.4543 82 17 35
29.9542 -4.21335 78.0591 97 20 38
17.7294 10.6689 77.5173 87 16 33
29.4665 6.59986 77.2023 73 15 29
29.7274 -5.99764 76.6734 101 17 39
29.7744 -3.22737 76.6906 81 25 42
29.5564 -0.388568 76.704 73 61 65
29.1495 5.75856 76.7341 61 18 27
29.4749 6.60251 76.7442 75 16 30
30.837 6.70879 76.3095 85 17 35
29.7911 -3.22208 75.7761 72 25 41
29.4406 -0.349652 75.7868 72 63 65
29.1746 5.76651 75.3594 64 16 25
29.5001 6.61046 75.3702 76 15 28
29.6755 -3.18386 74.8593 69 22 39
29.0285 5.34953 74.4373 62 17 29
29.7821 6.54514 74.4591 80 15 31
31.398 6.57843 74.4916 88 16 35
29.8246 -3.2115 73.9472 70 25 42
29.6195 -2.23252 73.9484 38 20 30
29.4143 -1.2526 73.9497 35 29 37
29.3415 -0.305414 73.9535 68 54 62
30.1878 6.44199 74.009 82 15 31
29.1053 6.26969 73.527 76 17 29
30.4608 6.37419 73.5569 82 15 29
31.4231 6.58635 73.1221 89 17 32
28.7493 2.64999 72.5819 50 30 40
28.8093 3.56506 72.5883 42 20 29
29.6231 5.67705 72.6187 68 15 30
29.1304 6.27765 72.152 76 16 31
28.6331 2.68971 71.6619 44 31 36
28.6931 3.605 71.6683 39 23 28
29.5671 6.63165 71.7062 80 15 30
30.2204 -4.20373 70.7501 99 19 41
28.7829 2.6606 70.7481 40 28 38
28.9757 1.22515 69.8288 40 27 32
28.9027 2.17407 69.8316 39 29 32
28.7267 3.61561 69.8341 35 23 23
30.1215 -4.16047 68.9187 100 20 41
30.1813 -3.24824 68.925 87 21 41
29.1682 -0.208919 68.9103 66 53 57
28.7435 3.62092 68.917 37 22 26
29.5875 -2.16758 68.455 54 24 36
29.1251 -1.11781 67.9879 51 38 51
29.185 -0.20362 67.9943 73 61 68
28.3044 7.00704 68.0023 74 17 33
30.0143 -4.11985 67.5435 99 20 41
28.1879 7.04787 67.0799 71 16 29
30.0311 -4.11456 66.6292 98 19 40
29.0175 -1.07637 66.6096 38 29 37
29.2102 -0.195671 66.6203 67 57 61
30.1801 -4.14197 65.7195 101 21 42
28.1531 6.13923 65.6958 62 16 27
30.1968 -4.13668 64.8055 94 21 38
29.008 0.339679 64.7819 70 54 53
28.6691 1.35658 64.774 55 37 42
30.2562 -5.5321 63.8868 88 20 39
30.2136 -4.13139 63.8914 94 21 40
29.0248 0.34498 63.8655 69 50 51
28.6859 1.36188 63.8569 54 39 43
30.405 -5.55915 62.9782 91 19 38
30.3625 -4.15879 62.9826 97 20 39
29.0846 -1.05517 62.9446 31 24 31
29.0116 -0.107034 62.9458 46 37 45
28.5996 1.85905 62.9378 56 41 45
24.8214 10.805 62.8247 95 32 66
24.7779 9.88775 61.8939 101 19 38
24.9298 9.85667 60.9752 101 19 38
24.7287 10.855 60.5079 92 33 64
28.4989 5.64509 59.7348 54 19 27
28.3824 5.68558 58.8107 51 19 28
26.2143 10.0031 58.7243 83 26 40
30.3821 -3.18479 57.9565 87 25 41
29.5749 -1.12648 57.9246 50 41 49
29.3695 -0.14533 57.9182 74 61 64
28.8119 3.71926 57.9053 38 25 30
30.9611 -4.71324 57.5223 94 19 35
28.111 5.30555 57.4171 43 19 25
29.5704 -7.61323 56.9842 102 18 39
30.6757 -5.10134 57.0495 92 19 34
28.1494 5.76661 56.961 47 19 26
24.5261 10.9498 56.796 76 33 61
30.4199 -5.0338 56.5794 92 19 37
30.2152 -4.05638 56.5724 95 19 38
29.3347 -1.05157 56.5378 41 32 42
24.0622 12.0263 55.8495 116 117 141
30.5388 -5.51687 55.6693 93 19 40
30.2319 -4.05109 55.6581 95 21 39
28.248 4.82277 55.5836 46 20 29
28.308 5.73937 55.59 54 18 29
24.6867 10.9211 55.4154 90 33 61
25.5791 9.74583 54.9967 99 19 41
24.8463 13.2313 54.9691 130 157 176
30.4235 -5.47923 54.7486 83 18 35
30.1164 -4.01308 54.7367 93 22 38
29.7063 -2.05494 54.7208 42 21 30
28.8538 1.41494 54.6859 50 36 40
28.8707 3.73783 54.6947 40 21 26
28.2948 5.28639 54.6684 49 17 25
28.8706 1.42024 53.7688 56 37 42
28.6644 2.40425 53.7604 52 36 40
28.7544 3.77783 53.77 40 21 27
28.1482 4.8684 53.7393 46 19 24
25.0651 9.89944 53.5818 100 18 40
24.9906 10.8584 53.5807 90 36 60
29.0158 5.57681 53.3315 58 17 25
29.7398 -2.04435 52.8901 38 22 29
28.7543 1.45967 52.844 55 40 44
28.6812 2.40956 52.8428 61 42 46
28.6381 3.81786 52.8448 42 21 28
28.8012 4.24101 52.8556 42 19 24
29.4529 5.93158 52.8988 63 15 29
20.6696 10.1502 52.4021 90 17 34
22.7484 10.0636 52.5226 96 17 37
29.9234 -3.4778 52.4383 76 25 41
24.9556 9.9439 52.1877 98 20 40
23.8288 11.6595 52.1267 94 68 95
29.6626 -7.58412 51.9521 100 18 39
30.2817 -6.34324 51.9929 93 22 40
29.9916 -2.56204 51.9872 55 27 38
28.2552 3.92742 51.9035 44 22 27
28.5517 4.31599 51.9224 44 20 24
29.4397 5.47945 51.979 59 17 27
20.6866 10.1556 51.4708 89 18 33
22.6377 10.1083 51.1225 95 20 37
24.8375 9.9857 51.2552 99 19 41
28.5217 1.53861 50.9933 43 30 34
28.302 4.39103 50.9883 44 20 28
15.1065 10.7079 50.1978 75 16 31
25.446 10.7645 50.832 90 38 63
29.362 5.98003 50.599 63 17 28
20.7122 10.1636 50.0738 89 16 35
22.6547 10.1137 50.1943 97 18 40
24.8544 9.99105 50.3306 101 19 45
14.9839 10.7506 49.2486 76 17 31
25.4629 10.7699 49.9083 90 39 61
28.5769 2.00454 49.6198 45 31 38
28.3873 5.31561 49.617 52 17 25
26.0353 10.6342 48.0961 85 42 66
28.3008 3.49303 47.7674 40 26 31
26.0522 10.6395 47.1733 75 43 69
29.5407 -0.538841 46.9229 65 53 53
28.4809 3.92188 46.8612 40 20 27
28.6394 6.21548 46.4181 57 19 27
28.7641 3.85768 45.9616 44 21 29
29.8311 -0.598098 45.5675 63 50 53
26.0559 10.1897 45.3244 75 27 50
29.6126 -0.0684926 44.636 79 64 64
24.9729 10.0285 43.8583 85 19 48
23.9814 11.7078 43.7891 100 87 121
24.0117 12.1701 43.7923 119 131 153
24.9447 13.7944 43.8644 130 158 176
29.6294 -0.0631935 43.72 76 62 62
24.885 10.5318 42.9268 89 27 58
23.7271 11.7871 42.8424 103 87 122
24.7962 13.3755 42.926 129 156 174
30.1546 -6.68231 42.8293 87 22 37
29.6162 -0.514995 42.8008 44 34 34
28.7066 6.23673 42.7453 57 18 25
30.3036 -6.70912 41.925 83 18 36
28.9258 1.0656 41.833 55 41 46
24.6401 10.6131 41.5187 89 28 65
29.1012 5.68095 41.3959 55 19 28
23.6255 11.8348 40.9782 103 92 134
29.9277 -2.43228 40.9874 51 24 37
29.2515 -0.403447 40.9375 46 39 35
28.5038 6.77645 40.8911 66 18 28
24.5218 10.6551 40.5828 85 27 66
24.0189 11.2669 40.0802 92 53 92
28.3872 6.81723 39.9618 66 20 29
27.7531 9.33167 38.9932 93 23 56
24.7514 11.5526 38.7493 113 97 151
28.1493 6.44811 36.7196 63 17 27
28.2995 6.41802 35.812 62 18 26
14.8608 10.4963 31.3325 73 19 30
16.9832 10.4075 31.5315 80 18 32
15.2976 10.39 30.431 72 19 29
17.1479 10.3785 30.1379 78 18 31
19.6668 10.1799 30.3802 85 19 34
30.4447 -7.5581 30.9475 101 20 38
16.4392 10.1011 29.129 72 21 29
20.105 10.0774 29.0204 85 20 31
16.5956 10.0695 28.2039 71 20 28
19.8471 10.1565 28.0599 83 20 33
25.6604 9.55696 26.7915 93 22 39
29.1129 -0.220096 26.6875 78 63 63
18.9034 9.96459 25.1551 77 19 31
23.2107 9.75622 25.6081 88 22 37
29.3356 -1.19731 25.792 46 34 41
29.1297 -0.214789 25.7702 77 60 64
18.912 9.9673 24.6876 78 21 33
29.1465 -0.209483 24.8529 72 58 61
17.6622 9.84043 23.1468 73 19 30
19.0756 9.93855 23.3001 79 20 33
23.6522 9.65739 23.7963 84 25 37
29.2363 -1.15321 23.9437 54 23 27
29.1633 -0.204176 23.9356 73 40 39
25.4499 9.64839 23.5282 87 28 38
27.9626 6.17252 23.3424 65 19 30
17.5406 9.88279 22.1945 74 19 31
18.9548 9.98082 22.3501 80 21 34
24.0761 9.55334 22.9139 88 22 38
28.1046 6.13982 22.8972 67 19 30
29.4243 -0.721216 22.5861 76 22 33
25.4753 9.65641 22.1416 96 25 39
30.1904 4.66718 22.2108 66 20 30
24.3809 9.49121 21.0913 101 23 41
25.3574 9.69815 21.2019 101 25 41
24.3894 9.49389 20.6282 102 23 40
24.5417 9.46284 19.7177 103 23 39
24.324 8.1154 19.2293 101 20 38
25.4202 9.26617 16.1132 101 27 43
26.0584 10.5067 15.7271 84 55 67
25.3162 7.42594 15.1757 78 28 28
26.3804 6.6845 14.3835 70 75 33
25.1982 7.46716 14.2341 71 76 34
25.3501 7.43664 13.3265 60 38 39
26.5784 9.45289 13.4799 57 39 52
25.0971 7.51373 12.367 26 23 22
26.7296 9.42196 12.5745 25 27 37
26.6423 9.92407 11.6375 25 28 37
24.1754 7.77344 10.8548 22 23 20
24.236 8.69824 10.8612 23 24 21
26.6592 9.92941 10.7146 24 30 39
24.253 8.7036 9.93458 24 24 23
24.7121 7.1756 9.53421 24 21 26
26.5417 9.97114 9.77378 23 29 44
24.4138 8.67542 8.56302 23 24 21
26.693 9.94009 8.86897 23 30 42
26.2232 7.77184 4.18057 24 25 23
26.2534 8.23268 4.18379 25 26 23
26.2317 7.77451 3.71882 27 25 23
26.4266 8.66009 3.74474 28 26 24
26.4435 8.66543 2.82146 24 31 49
26.0922 7.35749 2.3105 46 45 73
26.0264 8.31809 1.83512 78 72 81
27.7937 -9.2734 149.723 59 24 27
27.407 -9.22146 148.855 59 25 26
28.3894 -6.62445 148.737 15 18 16
28.2007 -4.78385 148.296 26 27 26
27.0849 8.07972 148.373 40 29 19
27.0287 -9.16902 147.528 57 27 26
28.2183 -4.78303 147.385 20 17 12
27.1026 8.08054 147.46 38 44 36
28.1015 -4.76413 146.487 29 29 22
27.1291 8.08176 146.091 22 20 22
27.003 8.10334 145.648 36 24 20
28.9191 -8.03929 144.594 26 20 22
27.6484 2.11397 143.78 16 17 21
28.2897 -8.40725 143.295 42 34 25
27.531 -9.21574 142.462 68 58 48
28.4419 -8.42366 142.37 42 39 29
-2.95886 -11.1046 144.52 76 66 69
27.5487 -9.21492 141.549 51 28 25
28.4596 -8.42284 141.458 34 24 23
28.428 -7.51156 141.458 18 17 20
24.9969 10.2579 141.279 16 21 22
27.7103 2.11682 140.587 13 19 21
24.702 11.2181 140.847 16 22 22
27.0354 -9.1454 140.23 54 27 26
24.9105 9.3644 140.375 19 20 23
27.728 2.11764 139.675 15 17 19
24.6314 9.8662 139.942 16 20 22
27.0531 -9.14458 139.316 54 26 24
25.2159 8.86432 139.433 16 20 23
25.0889 8.88616 138.988 16 20 23
28.1514 2.51574 137.814 15 17 19
-1.79283 -11.7025 139.133 76 59 69
25.8595 7.40902 136.637 15 20 19
28.3212 2.49757 135.979 15 18 16
24.6141 8.5161 136.287 14 18 20
-2.37179 -11.6322 138.224 73 58 66
25.7575 6.97342 135.734 15 17 19
-4.28699 -11.8873 137.427 75 58 65
-2.65243 -11.5966 137.287 74 57 64
25.4722 7.93159 134.842 16 18 20
24.5046 8.5387 134.922 16 18 20
27.0652 4.96038 134.258 14 17 15
27.0336 5.87339 134.259 15 18 17
-1.00822 -11.3067 136.188 73 56 62
-5.76801 -11.712 136.104 72 60 67
-3.06453 -11.5427 135.399 73 58 63
-0.989608 -11.3059 135.229 72 58 61
2.55487 -11.2438 134.462 79 65 69
-3.04585 -11.5419 134.436 81 71 79
-0.524686 -11.3572 134.233 81 72 79
-0.515386 -11.3568 133.754 83 70 76
0.011904 -11.8848 130.364 82 72 78
2.36039 -11.6824 130.19 78 66 69
-1.15909 -11.7458 129.491 74 57 65
-4.11853 -11.8795 128.741 75 59 64
-0.982237 -11.7618 128.04 75 57 62
26.2859 -6.26647 125.214 73 59 44
27.0617 6.81628 124.22 68 44 35
27.6033 7.18983 123.272 43 16 24
28.1596 7.10691 122.326 71 17 33
29.1558 5.59621 121.811 69 17 32
29.2829 6.03099 121.348 81 15 30
29.1497 2.43186 120.908 96 18 38
29.3075 5.57651 120.892 91 14 36
29.276 6.48628 120.893 96 17 38
29.6549 7.33366 120.414 91 21 41
29.1595 6.50782 119.99 91 19 41
28.971 0.651399 119.557 102 18 39
29.5387 7.3554 119.512 84 22 40
29.5879 6.44687 118.602 80 20 40
29.8328 7.31479 118.133 80 19 39
23.6701 10.5623 118.472 99 21 41
29.9676 3.67959 117.677 82 19 38
-11.7037 -10.9741 119.511 73 59 64
29.9842 7.29472 117.216 89 17 37
23.1407 10.6508 117.582 105 19 44
-11.0848 -10.5563 118.501 73 55 62
-9.10539 -10.3017 118.396 73 55 63
28.5903 -2.00272 116.396 56 21 36
28.1476 3.0504 116.412 40 20 29
30.1354 7.27463 116.3 102 17 38
29.9861 7.74987 116.307 105 18 40
23.1745 10.1918 116.662 106 19 42
28.5992 -2.00231 115.94 48 20 34
29.0181 5.18736 115.907 66 16 29
30.0194 7.29634 115.398 99 15 36
23.4661 10.149 115.728 105 18 43
30.5466 7.66717 114.917 102 18 39
23.6048 10.5875 114.802 105 19 45
30.8309 7.62608 113.996 98 18 39
23.6226 10.5883 113.883 106 20 43
28.6522 -1.99986 113.205 39 20 31
30.873 7.1736 112.634 86 16 34
23.3668 10.633 112.976 104 20 42
29.129 -3.42111 111.819 94 24 47
31.0239 7.15358 111.72 82 16 34
29.1467 -3.42029 110.908 94 23 45
29.8559 6.88765 110.864 73 17 32
31.0503 7.1548 110.359 76 16 32
29.5982 -4.38482 109.98 95 20 44
22.9777 11.6213 110.234 99 33 62
4.79265 -11.9051 110.54 73 52 59
29.0548 -3.85619 109.546 97 23 48
22.9956 11.6222 109.314 100 34 67
22.9726 12.5426 108.854 118 109 142
-2.37705 -12.4994 109.388 75 57 66
29.5231 6.49768 108.151 56 16 31
29.8773 7.79921 108.136 88 18 38
29.0743 -3.39903 107.723 90 28 49
23.1593 11.6012 107.928 97 36 68
22.9905 12.5434 107.933 117 112 142
23.5062 13.373 107.913 138 165 189
5.85968 -12.0225 108.124 72 51 58
28.9963 -4.74712 107.272 90 21 46
29.5407 6.4985 107.241 60 16 30
29.9107 7.34547 107.226 75 17 34
22.8465 13.0264 107.478 134 152 171
29.092 -3.39822 106.812 88 25 52
29.6361 7.84249 106.781 90 17 38
24.8317 10.878 106.949 99 26 64
29.4244 6.52004 106.335 68 16 33
22.4687 12.6344 106.572 118 118 150
23.1064 13.9019 106.548 140 164 192
29.1097 -3.3974 105.9 91 28 55
22.6468 11.6917 106.106 93 38 78
22.4616 13.0952 106.111 137 152 178
29.442 6.52086 105.425 72 17 31
22.3493 12.6577 105.655 122 119 156
29.0563 -5.20073 104.993 95 23 52
29.1273 -3.39658 104.989 91 30 55
29.5691 6.95542 104.965 79 19 34
22.5274 11.7147 105.19 96 39 80
22.2298 12.681 104.738 125 121 159
23.8257 10.1375 104.23 106 20 44
22.8196 11.6711 104.26 100 40 86
29.217 -5.21748 103.621 97 25 52
29.3354 -4.78003 103.618 93 19 47
29.0682 7.04047 103.161 80 17 35
29.6054 -4.36014 102.699 97 21 49
29.0858 7.04129 102.25 75 19 36
29.4023 -5.68924 101.795 104 22 55
29.6231 -4.35932 101.788 97 19 52
29.2376 7.02122 101.335 66 19 32
29.7748 -4.37667 100.874 102 22 54
29.4752 -3.42971 100.881 105 29 58
29.3253 -2.95589 100.884 88 30 58
29.2553 7.02204 100.424 69 19 34
30.4439 7.28887 100.395 77 18 36
29.4219 -5.23219 99.9725 104 27 56
29.7924 -4.37585 99.9633 103 25 55
29.4928 -3.42889 99.9698 103 30 60
6.92115 -13.0651 100.033 76 54 62
29.407 7.002 99.5105 78 19 35
30.595 7.26881 99.4834 84 17 35
29.8189 -4.37463 98.5974 99 28 62
29.3853 -3.40928 98.6061 96 31 66
30.4879 7.2909 98.1231 84 18 35
29.9705 -4.39197 97.6843 103 26 65
29.403 -3.40847 97.6949 101 30 65
30.639 7.27084 97.2118 85 17 35
23.2754 10.2528 97.3482 108 20 41
29.8542 -4.373 96.7763 111 26 63
29.4364 -3.86306 96.7836 110 30 66
29.4758 6.54934 96.7787 72 17 33
29.4926 -5.22893 96.3276 111 29 67
30.5232 7.29253 96.3054 86 19 39
23.1564 10.2755 96.4301 107 19 42
29.5014 -5.22852 95.872 110 31 70
29.4856 -4.77309 95.8721 108 28 67
29.4383 -3.40683 95.8724 106 37 72
29.7456 6.96356 95.8639 78 19 38
30.9322 7.23033 95.8445 84 18 38
21.1277 10.1438 95.5411 98 22 41
24.5251 10.5172 95.4885 106 23 51
29.6531 -5.24567 94.9589 112 34 77
29.456 -3.40602 94.9612 106 39 76
29.897 6.94354 94.9518 63 21 35
22.3599 10.4082 95.0612 102 19 42
31.2251 7.18985 94.4786 70 17 33
23.434 11.1532 94.5853 105 26 76
20.8784 10.189 94.1588 98 18 43
22.6046 11.7469 94.136 104 46 99
29.5456 -5.22648 93.594 111 35 82
29.5298 -4.77105 93.5941 111 31 80
29.4825 -3.4048 93.5944 108 40 83
22.4602 12.2302 93.677 118 94 145
29.8143 6.51113 93.1334 67 19 35
20.62 10.2337 93.2375 94 18 41
22.8075 10.3441 93.2126 101 19 43
29.4291 -5.20769 92.6842 114 38 81
29.5475 -4.77024 92.6829 114 34 77
29.5001 -3.40398 92.6832 111 41 82
29.3029 6.13922 92.6839 66 18 35
23.3169 11.637 92.7465 100 48 94
23.1481 12.5794 92.7481 130 134 174
29.4468 -5.20688 91.7728 113 37 84
29.3837 -3.38475 91.7732 117 41 89
29.3303 -5.18808 90.8623 116 38 89
29.7011 -4.33137 90.8596 118 35 87
29.4013 -3.38394 90.8617 119 40 87
29.4821 -5.20525 89.9499 117 39 93
29.3322 -4.73162 89.9507 119 36 90
29.2849 -3.36471 89.951 119 39 89
23.9017 12.0103 89.9822 121 98 148
29.3114 -3.36349 88.5836 122 43 90
29.6624 -4.76494 86.7599 123 36 88
29.5952 -5.65628 84.9369 124 38 92
29.6166 -4.74278 82.2028 124 37 89
31.9715 6.26194 71.3375 81 20 40
31.597 5.87041 70.8725 75 22 39
29.7439 -5.62536 70.35 124 41 95
31.7476 5.8507 69.9685 73 21 38
29.6915 -3.34594 68.9831 113 47 95
31.9002 6.28539 68.1575 74 20 36
29.6173 -3.78122 66.6991 118 40 88
29.0101 6.28705 66.2356 71 19 36
23.6054 11.7074 63.7428 111 95 126
23.7138 9.86849 61.4403 105 20 47
23.9238 11.665 61.4528 113 96 137
23.7317 9.86932 60.5194 101 23 46
23.9416 11.6658 60.5324 115 102 145
29.4114 6.25174 59.4064 64 20 35
23.7585 9.87055 59.1382 86 24 44
23.9684 11.6671 59.1518 106 106 146
30.0831 -5.17751 58.9611 104 29 62
29.9018 -3.7926 58.9548 104 31 65
23.7674 9.87096 58.6778 83 23 44
29.6974 6.21116 58.5079 59 20 33
31.5369 6.83051 58.6016 68 22 38
23.5846 11.7349 57.7504 107 106 148
23.7942 9.8722 57.2965 83 24 42
29.3214 6.27449 57.1196 56 20 33
31.2968 6.87329 57.225 66 21 34
23.8121 9.87302 56.3756 94 21 39
29.0704 6.31677 56.1931 63 19 32
30.5292 6.54412 56.2728 68 18 33
29.8296 -3.77142 55.7566 98 30 57
23.8299 9.87385 55.4548 101 22 40
6.40978 -14.281 53.9665 80 70 72
23.7109 9.89647 54.5262 102 22 43
24.4995 10.6853 54.5727 95 34 80
5.41645 -14.1641 52.4813 78 70 79
23.8746 9.87591 53.1527 104 22 44
24.6807 10.6654 52.2817 93 35 84
24.6985 10.6662 51.3621 93 35 85
28.9391 -2.26891 50.6817 42 28 38
24.8528 10.6451 50.4513 93 38 87
28.0616 4.2243 49.7257 43 22 31
24.2196 9.83566 49.4872 101 22 40
28.9815 -2.72419 49.3115 62 27 47
28.9904 -2.72378 48.8548 64 29 48
29.2227 6.7806 47.5242 69 19 32
29.3836 6.76098 46.1651 63 21 33
29.1573 6.34773 44.7766 59 21 33
29.6963 6.72136 43.9047 68 20 32
29.5797 6.74301 42.9824 71 19 32
24.3057 11.2219 42.5845 107 89 128
29.2192 6.35059 41.582 66 20 28
29.0866 6.82845 40.6584 72 21 36
28.9161 -2.67755 38.7847 56 32 45
29.7813 6.29572 33.4054 73 20 31
29.1432 5.94389 32.4287 66 19 30
21.0578 -14.0135 28.7882 106 91 90
21.2143 -14.0288 27.8749 104 89 90
27.8916 2.05754 27.7074 45 33 39
24.2539 9.46045 27.3547 94 24 46
26.9793 5.84371 26.2483 62 21 28
26.5565 6.36451 26.205 67 21 29
26.8615 5.86526 25.3167 64 22 33
26.601 6.36656 23.9111 68 22 32
24.3342 9.46416 23.2099 95 27 51
29.2017 5.51623 23.2818 67 22 32
23.4089 9.15594 22.1803 98 24 42
29.4882 5.47593 22.399 78 19 33
23.6458 7.29192 20.3506 95 20 38
23.227 7.81731 19.8413 101 22 41
23.5195 7.77547 18.9509 102 24 42
23.8206 7.7341 17.6002 103 25 39
24.0573 -10.6507 17.0848 92 30 34
30.3763 -5.5239 16.9687 91 24 43
25.0306 8.92376 16.3694 103 26 43
25.176 8.90263 15.9263 89 33 43
23.6029 -11.5035 13.7844 86 32 34
27.203 9.95693 14.347 94 78 79
26.2376 6.91816 13.7485 42 34 30
27.1801 10.8736 13.8889 128 143 144
26.0946 7.39872 13.2718 29 27 25
16.1197 -14.7821 11.4005 92 60 60
26.0876 7.85828 12.8126 27 26 26
26.1283 6.94042 12.3531 23 24 21
25.8492 7.44226 11.858 26 24 22
25.8173 8.36096 11.8582 24 25 22
26.164 6.94206 10.5158 24 24 24
26.1003 8.77859 10.5162 25 25 25
26.0209 7.42275 10.0382 25 25 25
26.0139 7.88239 9.5789 23 24 21
26.1182 8.77941 9.59756 25 25 25
26.0546 6.96433 9.11926 23 24 21
26.0247 8.34287 8.20071 26 26 26
26.0425 8.3437 7.28185 26 24 22
26.2034 7.86362 6.84145 26 24 22
26.3076 8.76042 6.86078 26 26 26
26.1081 6.9668 6.36268 23 24 21
26.2212 7.86444 5.92282 26 23 25
25.4946 6.15418 4.42621 25 26 23
26.5674 6.44646 4.58388 27 25 23
25.7851 6.11329 3.54614 27 26 22
26.3135 6.4891 3.62591 27 26 22
25.6507 6.59464 2.60656 46 59 22
27.3693 8.07843 149.859 22 22 22
24.8856 9.89707 149.648 16 21 21
24.8545 10.3447 146.452 15 22 24
28.1035 -4.93122 145.986 36 35 26
-9.76702 14.6132 149.658 136 169 184
-9.78196 15.5621 149.639 139 169 185
24.9477 9.89466 145.541 17 21 23
24.8683 10.3441 145.539 15 22 23
-8.68171 14.5914 148.578 138 166 184
-8.84231 15.5417 148.092 141 170 186
24.889 10.3433 144.17 17 21 24
-8.4992 13.6403 147.615 126 158 181
19.6052 -13.7481 144.79 142 172 190
24.8959 10.3431 143.713 17 21 24
-7.96587 14.1037 147.068 132 166 182
-7.95858 14.1034 146.586 131 166 180
-5.93272 15.4792 146.346 138 168 183
