ply
format ascii 1.0
element vertex 1358
property float x
property float y
property float z
property uchar red
property uchar green
property uchar blue
end_header
7.23726 16.1942 120.722 86 16 40
4.58061 18.2345 120.394 101 58 72
3.71484 18.3751 120.277 103 53 63
-6.60149 15.2717 118.771 110 23 88
12.4319 11.7232 120.93 96 44 67
11.4476 12.5322 120.809 85 17 38
6.32669 17.0262 120.191 87 17 44
5.07966 18.1934 120.042 97 42 65
-7.18772 15.8437 118.275 125 36 115
7.5305 16.549 119.928 85 32 34
6.17504 17.5199 119.76 88 17 40
5.19992 18.3208 119.641 93 29 56
4.87514 18.5875 119.601 99 41 68
-6.85076 15.5017 117.887 124 34 125
-7.11017 15.8025 117.431 138 44 143
12.58 11.7108 119.679 82 18 37
11.976 12.3504 119.61 76 19 36
6.46861 17.8734 118.967 89 33 42
5.49391 18.6736 118.849 90 19 39
4.19704 18.8846 118.671 100 46 74
7.18559 17.3685 118.634 111 102 114
6.58851 18.0008 118.566 97 56 64
11.4537 12.9478 118.704 95 85 104
11.2314 13.4168 118.685 94 89 110
7.31856 17.4267 117.812 84 90 124
6.01794 18.4942 117.656 95 50 73
5.69314 18.7608 117.617 92 40 71
6.58267 18.4822 116.894 120 94 113
10.9488 14.2706 116.976 70 78 96
9.42047 15.8104 116.802 71 80 109
5.9995 19.0442 116.405 95 36 61
7.04051 18.2737 116.111 118 112 129
8.46157 17.3336 115.866 111 123 151
7.16025 18.401 115.711 117 113 128
6.56387 19.032 115.644 111 70 86
7.61822 18.1925 114.928 76 79 98
6.76297 19.1192 114.413 111 69 92
8.12951 18.0822 114.156 62 60 50
7.49231 18.5464 113.657 112 105 123
-14.416 24.3721 110.673 98 36 61
-15.6764 24.6859 110.5 99 37 60
-17.852 24.2906 110.171 97 38 57
8.26236 18.1404 113.334 103 122 143
-17.4028 24.1499 109.806 88 21 37
-15.22 24.4773 109.71 83 15 35
8.34215 18.1003 112.501 93 101 125
7.09481 19.2646 112.361 110 69 93
-19.3339 24.0075 108.667 85 40 47
-15.6435 24.4127 108.796 85 33 63
-16.9378 23.872 108.587 93 48 69
-17.3793 23.9441 108.525 93 48 64
-18.8242 23.9647 108.314 89 43 53
9.83086 17.1891 111.842 51 45 49
8.52806 18.2568 111.691 68 66 78
7.22755 19.3227 111.54 107 66 96
-14.521 24.5906 108.543 82 15 51
-18.8763 23.7978 107.873 92 45 57
-17.8649 23.781 107.595 101 49 64
9.2592 17.683 110.933 60 60 74
8.28248 18.4835 110.82 73 68 75
7.30704 19.2829 110.707 100 59 76
-14.6514 25.0138 107.691 83 18 44
-16.0006 24.3774 107.467 94 33 62
-16.7956 23.8621 107.329 94 35 61
9.10577 18.1756 110.508 67 64 82
6.88856 19.2844 110.224 101 48 66
-11.2488 24.1745 107.736 86 11 34
-15.8748 24.5044 107.065 87 19 46
-17.7305 23.8398 106.764 87 22 44
-18.8537 23.5914 106.588 81 20 39
8.03691 18.7101 109.949 100 59 85
-14.4593 25.1697 106.876 85 13 36
-16.6614 23.9209 106.499 84 15 37
10.6684 15.642 109.791 75 73 104
9.35288 17.5734 109.676 89 77 89
7.77808 19.0057 109.501 96 41 70
6.91467 19.1465 109.378 95 30 56
-10.9425 24.5253 106.948 84 15 31
-11.7607 24.7665 106.836 83 18 36
-13.3982 25.2493 106.613 86 22 40
-15.682 24.6608 106.249 84 17 31
-17.7744 23.6041 105.894 82 16 31
-18.8386 23.4537 105.73 78 15 41
-19.6053 23.795 105.63 80 22 50
10.1341 16.3064 109.316 96 80 132
10.2007 16.3355 108.904 108 63 98
9.43297 17.5331 108.841 103 47 81
8.5616 18.5307 108.754 97 50 67
7.58578 19.3304 108.642 106 46 62
-12.4457 25.0663 105.898 101 54 84
-13.7615 25.2826 105.711 97 51 72
-14.5812 25.5244 105.599 94 50 65
-15.196 25.3046 105.498 94 49 65
-18.7637 23.4142 104.885 88 36 60
-19.4707 23.8539 104.798 86 35 62
-10.1326 24.8328 105.81 108 58 82
-11.5604 24.8542 105.597 88 32 61
-8.03465 25.0599 105.711 108 61 80
-13.686 25.2439 104.872 104 55 88
-14.4475 25.5829 104.773 104 57 91
-15.6781 25.1431 104.569 102 54 90
-16.7673 24.1401 104.361 102 54 88
-17.4461 23.82 104.245 103 52 83
11.3814 15.619 107.78 94 39 69
10.4005 16.4231 107.668 94 46 66
-18.6215 23.4042 103.623 89 31 68
-11.3601 24.9419 104.359 87 17 37
-14.8115 25.6165 103.87 89 24 45
-16.574 24.2969 103.544 87 22 43
-7.79763 25.8584 103.67 97 37 54
-13.6744 25.657 102.769 103 50 75
-14.5525 25.8015 102.643 96 50 65
-8.94361 25.4506 103.053 99 49 68
-9.81679 25.5945 102.927 104 61 77
-10.4256 25.3755 102.824 102 62 77
-8.70627 25.7703 102.682 96 42 57
-14.5356 25.6656 101.789 109 60 78
-10.8445 25.3118 101.909 100 41 49
-9.44557 25.9727 101.732 90 21 42
-1.16603 14.0247 100.238 97 15 56
-12.4138 25.2019 89.7303 86 12 37
-15.3132 25.9338 88.8849 81 12 34
-12.2797 25.2606 88.9013 86 19 53
-14.5403 25.5252 88.5528 86 21 41
-10.4237 25.7842 88.3884 87 14 36
-13.9652 25.5115 87.7894 103 56 80
-14.8471 25.6566 87.6561 97 52 79
-12.1367 25.2511 87.641 90 23 63
-9.79413 25.8676 87.6445 89 13 38
-10.2324 25.94 87.5781 88 14 36
-11.6877 25.1104 87.2761 86 16 49
-14.7715 25.6177 86.8087 100 42 79
-17.7859 23.8469 86.1793 92 36 58
-18.2303 23.9195 86.1119 94 38 62
-20.0232 22.5803 85.7157 95 37 61
-11.9446 25.4074 86.8288 86 17 42
-12.8247 25.5522 86.6953 96 30 53
-13.3233 25.5271 86.6114 94 28 50
-16.1185 24.9114 86.1044 89 24 45
-17.8378 23.6791 85.7269 87 23 44
-18.8472 23.6268 85.5569 90 25 46
-4.57173 25.6176 87.6321 90 18 44
-9.15551 25.8832 86.4709 89 13 40
-13.5713 25.756 85.7319 85 45 72
-14.5114 25.8036 85.5804 84 35 48
-17.7027 23.7383 84.8915 84 16 37
-18.5322 23.9823 84.7737 81 21 40
-19.9644 23.2379 84.4789 76 34 65
-3.94721 25.7008 86.8914 97 70 71
-4.98634 25.5541 86.7079 97 67 66
-5.59123 25.335 86.5905 96 59 63
-11.9514 25.9577 85.5876 95 75 88
-12.5653 25.7379 85.4686 98 85 100
-1.05227 25.6854 86.945 92 63 108
-2.89941 25.7796 86.6463 109 109 129
-8.58404 25.8694 85.7111 87 17 34
-13.4955 25.7172 84.8847 115 124 143
-16.9446 24.0207 84.1772 92 51 60
-18.722 24.3113 83.9058 83 63 101
-5.78151 25.6596 85.733 122 122 150
-12.9879 25.674 84.5371 121 134 150
-14.4859 25.5988 84.2822 121 128 148
-17.8849 23.9983 83.5883 76 40 69
-19.5803 23.6238 83.2764 111 115 141
-2.82194 25.7411 85.8063 114 125 135
-3.74745 25.7883 85.6561 120 133 162
-4.18271 25.8603 85.5895 121 131 160
-1.2866 25.8446 85.6459 95 95 110
-5.64811 25.718 84.908 103 108 136
-12.912 25.6352 83.6896 90 99 125
-13.3526 25.7078 83.6221 82 90 118
-14.4103 25.5599 83.4335 89 95 130
-15.9429 24.627 83.1011 98 104 136
-19.445 23.6831 82.4394 114 127 140
-3.61428 25.8466 84.8325 85 83 97
-4.54095 25.8939 84.6816 85 81 98
-15.8755 24.6565 82.6845 89 95 127
-16.4965 24.4343 82.5622 109 110 134
-17.2378 24.0144 82.4035 108 105 128
-1.6428 25.8781 84.7399 70 70 87
-2.29868 25.563 84.6037 65 63 82
-13.7176 25.7415 82.7063 60 66 98
-19.3096 23.7424 81.6023 117 128 147
-5.39175 25.9026 83.6881 68 70 79
-14.0915 25.8436 82.2232 73 87 122
-15.6816 24.8137 81.8693 99 112 141
-17.1028 24.0736 81.5682 112 109 126
-2.43372 25.9836 83.7663 92 96 98
-12.5272 25.9479 82.066 104 115 126
-13.5833 25.8003 81.8759 102 114 135
-1.00945 25.8935 83.5734 110 120 143
-11.895 26.0315 81.3228 81 90 98
-1.85513 25.9023 82.5814 80 73 100
-6.49076 26.1392 81.8179 89 95 99
-13.4403 25.7909 80.6118 89 100 99
-15.2941 25.128 80.2401 121 130 156
-9.86707 26.8447 80.8813 130 133 150
-11.645 26.285 80.5304 75 74 82
-4.2649 26.4223 80.9419 80 88 93
-10.1716 26.9758 79.9864 116 125 133
-12.1829 26.0266 79.5588 99 102 105
-11.5019 26.2757 79.2685 106 124 151
-11.5506 26.1102 78.8164 102 105 128
-4.61266 26.3885 79.6011 97 101 112
-12.5383 25.9923 78.2076 74 71 89
-12.9702 25.9968 77.7046 51 57 75
-14.8228 25.3344 77.3252 68 74 104
-4.97142 26.4222 78.6897 69 70 87
-5.57654 26.2038 78.5652 73 74 87
-11.5721 25.7401 77.0618 45 44 47
-12.4533 25.8853 76.9237 47 50 49
-14.3045 25.2227 76.5423 55 58 76
-4.78189 26.5775 77.8838 66 69 81
-5.44305 26.2623 77.7397 68 68 79
-11.563 25.6718 76.6273 48 47 50
-15.832 24.2178 75.7522 79 60 85
-3.56456 26.9456 77.703 57 61 70
-10.1539 26.3359 76.5051 63 62 72
-15.9424 23.9515 75.2753 84 60 73
-16.8316 24.0969 75.1355 82 45 63
-11.8112 25.9009 75.7471 57 57 64
-10.3079 25.9076 75.579 93 86 103
-9.80116 25.8644 75.2335 109 77 117
-11.6769 25.9597 74.9166 100 88 136
-13.7333 25.7619 74.5395 99 52 63
-16.7479 23.9883 73.8409 84 16 37
-17.6635 23.1999 73.1701 84 16 39
-3.07512 26.5359 75.6164 108 42 47
-9.72457 25.8257 74.3844 89 19 36
-10.1066 25.9957 74.3347 91 23 35
-14.6287 24.913 73.437 85 21 37
-15.131 24.8874 73.3467 84 18 35
-17.982 23.4015 72.7006 84 24 37
-13.0897 25.7775 73.3614 86 34 62
-15.9219 24.3005 72.7173 86 31 60
-9.53295 25.9819 73.5748 98 37 78
-13.8159 25.292 72.7541 97 53 89
-14.9068 24.2832 72.4606 97 53 86
-16.4178 24.2055 72.1879 95 53 81
-6.09603 26.8395 73.8366 95 32 63
-10.7852 26.2291 72.9507 102 47 73
-16.7354 24.4067 71.7195 101 53 72
-17.4792 23.9856 71.5459 100 51 68
-14.9792 24.809 71.6367 99 47 71
-15.6598 24.4879 71.4839 99 47 72
-6.132 26.6071 72.9507 97 31 50
-11.5314 26.4333 71.9806 99 34 58
-13.6138 25.3805 71.5043 94 30 55
-9.58923 26.3668 71.8867 94 27 43
-10.5261 26.4147 71.7262 93 24 43
-12.7534 25.9248 71.2816 89 23 45
-6.98658 26.6166 71.9441 92 28 52
-14.1566 25.1198 70.5176 85 30 54
-10.8898 26.4488 70.8056 94 41 75
-11.8866 26.3993 70.6236 97 47 87
-8.83427 26.5768 70.7544 104 53 71
-9.77004 26.6249 70.5933 98 50 60
-14.0218 25.1789 69.6835 104 55 67
-15.1445 24.9313 69.4576 94 43 58
-7.22376 26.7771 70.6332 99 44 66
-12.1012 25.8721 69.6677 103 48 73
-13.6289 24.9391 69.2954 104 48 69
2.75726 25.7983 71.8788 90 13 35
0.045396 26.0368 71.4209 114 53 68
-15.5125 24.9649 68.5298 92 26 48
-9.62642 26.6157 69.3286 91 24 44
-11.1194 26.5416 69.0537 89 23 46
-13.702 25.4638 68.4747 86 21 44
-7.51797 26.8405 69.3009 90 25 61
-8.68076 26.4997 69.0553 89 25 66
-9.11997 26.5723 68.9846 88 25 68
-11.1681 26.3761 68.5964 88 28 72
3.33546 25.717 70.6946 88 19 33
-8.0605 26.6509 68.7535 98 34 66
-10.4871 26.6251 68.3154 97 37 79
3.46843 25.7753 69.8723 96 30 44
0.812654 26.1105 69.4316 102 29 45
-10.3529 26.6839 67.4853 92 32 45
-13.7893 26.6087 66.858 89 34 52
-8.51735 26.3544 66.9186 85 17 39
-9.77871 26.6699 66.7264 103 55 73
-10.3341 26.5478 66.6122 105 54 72
-11.9712 26.9661 65.9328 97 42 45
-9.70208 26.6313 65.8749 95 38 43
-10.7558 26.4844 65.6668 95 40 37
-12.4615 26.8736 65.4021 95 38 34
-7.81982 26.4672 65.7674 93 35 65
-8.75557 26.5152 65.6028 95 36 60
2.94696 25.9972 67.2432 103 40 73
1.26689 26.3822 66.9822 105 39 70
-5.50367 26.2309 65.7314 99 38 77
-10.5636 26.6408 64.8577 93 35 56
-11.561 26.5915 64.6703 92 34 48
-7.79992 26.3312 64.8945 96 33 79
-8.67872 26.4765 64.7512 98 43 80
-9.61585 26.5246 64.5859 95 38 74
-11.6009 26.3574 63.7722 100 39 65
-4.4837 26.0766 64.6105 103 38 46
-8.65919 26.3404 63.8771 108 55 90
-9.65432 26.2908 63.6889 102 48 74
-10.5355 26.4364 63.5449 106 50 76
12.6497 20.9447 66.7099 104 39 49
-1.67518 26.7144 64.7725 108 50 69
-6.77766 26.1766 63.7718 88 14 43
-7.71291 26.2244 63.6059 98 28 67
-11.6989 26.0251 62.8506 93 29 53
-12.3494 26.5621 62.7956 95 28 52
0.187219 26.5512 64.6668 107 36 48
-4.44982 26.7907 63.8432 94 17 37
-5.60686 26.4501 63.5894 88 10 34
-9.69283 26.0567 62.7909 93 21 41
-10.6325 26.1045 62.6239 91 18 39
-11.6898 25.9567 62.4117 88 17 35
-1.97737 26.8453 63.8759 94 21 37
-7.90382 26.5507 62.7486 88 13 35
-8.89765 26.5013 62.5595 89 14 34
-12.5066 26.1321 61.85 88 14 36
-13.8026 25.5914 61.5457 85 15 40
-0.0591616 26.7786 63.7931 100 47 75
-5.13428 27.0914 62.8948 88 13 33
-11.3458 25.5509 61.5605 85 12 29
-12.9073 25.3769 61.2512 86 14 36
-2.9844 27.4114 62.902 87 10 33
-8.64862 26.755 61.7742 87 12 35
-9.20334 26.633 61.6567 87 12 32
-12.3967 25.3336 60.9067 84 14 34
-13.518 25.086 60.669 83 19 40
-14.879 24.443 60.3384 84 21 50
-15.2055 24.7134 60.3112 85 24 53
0.288808 26.3775 62.9518 108 42 57
-13.7447 24.6229 60.1357 81 20 43
-1.33028 26.793 62.2746 93 26 57
-5.52627 27.809 61.6224 90 24 47
-14.031 24.0599 59.5779 82 19 40
-15.0993 23.9088 59.3609 98 45 66
-15.4262 24.1798 59.334 102 50 76
-1.69923 26.8946 61.79 98 38 78
-2.68262 26.8457 61.6011 91 32 72
-13.5184 24.0167 59.2326 84 14 34
-4.19426 27.4558 60.9671 106 51 70
-14.2815 24.291 58.6899 85 23 52
6.7988 25.7081 61.9403 89 8 34
-1.17413 26.7161 60.5785 98 31 64
-4.93451 27.6597 59.9959 94 29 59
-5.75263 27.9021 59.8738 92 24 47
-6.51447 28.2412 59.7746 88 14 36
-8.20923 28.6296 59.5074 89 10 35
-2.4154 26.9628 59.9485 101 41 63
-14.0782 24.38 57.4332 86 26 55
-0.605001 26.7022 59.8251 101 42 59
6.99816 25.7954 60.7074 90 10 33
-2.38211 26.7597 58.6397 104 39 80
-7.56044 28.5771 57.9019 87 22 44
-4.00688 27.1764 57.958 100 36 87
-6.6905 27.997 55.8371 88 12 39
-4.27829 27.1045 55.7448 88 12 35
-5.04112 27.444 55.6455 88 12 35
-22.2598 18.2496 51.1245 88 37 60
-0.477099 27.7196 55.6935 93 15 46
-3.76297 26.9933 54.9664 88 12 36
-21.9361 18.6159 50.3486 87 39 60
-7.48767 27.1189 53.8398 91 32 52
-8.92231 27.1429 53.5686 90 34 60
-21.7434 18.8497 49.974 88 38 57
3.07656 27.1021 55.431 104 48 66
-6.59859 26.9052 53.5486 99 51 66
-7.02787 26.91 53.0347 108 64 84
-21.4204 19.2151 49.1999 89 39 60
-5.41629 27.1102 52.9405 108 55 63
-6.46434 26.964 52.7183 110 54 65
-7.4004 27.0124 52.545 107 53 65
-21.0753 18.7956 48.3208 87 32 58
-21.2827 19.2754 48.3483 88 39 58
3.6138 26.8566 53.7849 109 38 66
-6.76945 27.0956 51.8135 90 25 62
-5.21513 27.1983 51.6964 98 40 80
-21.1843 18.4485 47.363 88 32 59
-5.81341 26.9113 51.1076 105 57 79
-6.3095 26.8868 51.0079 109 57 89
-21.57 18.5518 46.8588 86 37 60
-6.2992 26.8188 50.5676 112 62 85
-7.17869 26.9646 50.4178 101 50 77
-2.98153 27.4806 50.8758 102 43 56
-4.02488 27.335 50.6518 106 51 61
-5.12701 27.0919 50.4023 105 52 67
-5.73588 26.8727 50.2522 108 55 69
-3.40794 27.4856 50.3623 98 33 52
-6.60449 26.9505 49.6617 105 42 56
-7.10137 26.9259 49.5613 103 39 50
12.8987 23.4384 52.5226 93 12 33
-3.83469 27.4908 49.8483 96 24 49
-4.87986 27.3451 49.623 95 22 49
-5.43161 27.2236 49.4976 95 22 47
-2.78077 27.5685 49.6342 90 20 43
-7.52139 26.8628 48.6036 89 28 41
-8.46005 26.9111 48.4272 86 22 35
10.9667 24.8977 51.5015 88 9 35
-4.74576 27.4039 48.7937 92 34 71
-5.29741 27.2823 48.6677 91 31 68
-22.8119 17.6527 43.8156 107 91 109
-2.64692 27.6272 48.8065 104 55 80
-3.63375 27.5788 48.6057 100 52 86
-7.61584 26.531 47.6688 105 61 83
-8.11414 26.5062 47.5674 104 60 80
-9.76448 26.994 47.3159 106 65 81
-6.49627 26.7076 47.4813 107 54 87
-9.98641 26.5344 46.7694 108 61 73
-23.5437 18.7509 42.9435 78 79 90
-3.88138 27.8073 47.7275 107 49 85
-8.42064 26.6382 46.6584 107 47 77
-10.0348 26.368 46.3 99 43 62
-21.6298 17.7 42.7172 90 42 62
-22.0237 17.8754 42.6659 94 61 72
-2.33459 27.9088 47.6161 102 35 49
-6.30483 26.8641 46.6755 103 37 55
-7.47115 26.5217 46.3938 96 30 58
-3.74743 27.866 46.8991 92 27 48
-8.66968 26.8681 45.7753 96 37 59
-23.3363 18.8417 41.6612 75 77 85
5.46693 27.2169 48.1923 96 14 41
-7.83478 26.5559 45.4586 96 44 76
-21.6302 18.2731 41.4666 98 60 72
-22.0859 18.3461 41.3875 113 93 105
5.5335 27.2461 47.7806 94 13 37
-2.18966 27.8998 46.3492 102 48 77
-6.65717 26.8302 45.2996 101 42 57
-22.8043 18.727 40.8576 96 98 98
8.47467 25.6341 47.6875 92 10 35
-11.4683 26.8086 43.9066 112 51 63
-21.0983 18.1584 40.6632 92 43 66
-6.52262 26.8892 44.4675 102 34 54
-7.57535 26.7422 44.2353 97 30 67
-9.80366 26.2512 43.716 103 37 59
-10.6894 26.3976 43.5624 98 32 48
8.44835 25.4015 46.7866 93 12 36
-21.3538 18.3941 39.7572 101 65 76
-6.71427 27.2163 43.6122 90 15 39
-7.6524 27.2648 43.4324 88 16 42
7.28197 25.6761 45.7361 93 12 31
-5.04412 27.5135 43.5588 87 13 32
-1.02589 27.7363 43.9658 88 22 35
-3.37979 27.8098 43.5057 88 17 44
-4.59447 27.3726 43.1934 87 18 44
-6.96294 27.4458 42.7304 97 36 57
-7.84388 27.592 42.5769 94 40 55
-11.212 25.9998 41.6509 94 42 57
-12.2174 25.9494 41.4415 106 59 79
-4.90983 27.5723 42.7284 94 35 69
-5.46233 27.4507 42.5982 95 35 68
-12.0569 25.3144 40.936 103 52 74
12.6565 25.7464 45.5362 93 10 36
-3.41408 27.5772 42.5965 106 57 76
-7.65204 27.7484 41.7717 102 57 60
-1.69879 27.9699 42.5719 105 52 93
-4.88861 27.4366 41.844 111 56 78
-5.82428 27.4853 41.6634 104 46 58
-6.26409 27.5584 41.5865 100 41 48
12.7893 25.8046 44.7146 95 12 37
-3.88707 27.4173 41.6093 110 48 67
-13.1301 25.7221 39.4719 92 20 34
-1.67622 27.8348 41.6902 107 34 48
-2.11352 27.9076 41.6136 106 30 45
-5.63308 27.6415 40.8592 95 17 38
-6.51264 27.7878 40.7051 92 15 33
-7.39299 27.9342 40.5508 93 16 34
-11.903 25.2357 39.2033 89 16 34
-14.7246 24.6121 38.5323 86 44 62
-15.1719 24.6855 38.4537 97 73 89
12.335 25.6447 43.7387 94 12 32
-4.6871 27.5249 40.5978 90 11 35
-12.5156 24.9432 38.5937 92 16 34
-14.8947 24.2447 37.9987 87 51 67
-15.3424 24.3179 37.9199 107 91 103
-16.807 24.3393 37.6269 128 138 147
6.61752 27.1667 42.3981 101 18 37
-4.49628 27.6809 39.7944 89 9 33
-13.9506 23.1882 37.1374 91 16 37
-14.2796 23.4609 37.1152 88 18 31
-15.445 23.9797 36.9635 107 91 102
-15.8934 24.0531 36.8844 128 130 141
-16.7306 24.2995 36.7548 133 147 146
12.9653 25.6602 42.5811 94 11 37
8.26876 26.5494 41.7718 100 14 40
6.91132 27.5146 41.6546 102 16 40
-14.2709 23.3911 36.665 88 19 32
-4.97085 27.5209 38.8035 89 9 34
-15.9367 23.8139 35.9547 129 129 142
-16.4141 24.6577 35.9971 136 145 142
-13.8967 23.8493 35.9362 88 20 29
-14.4635 23.7234 35.7995 84 29 37
-15.7486 24.0431 35.5903 130 127 147
-2.67634 27.9003 38.0341 90 10 31
-13.1945 24.0347 35.2304 89 16 35
14.8113 22.4831 40.2762 98 16 41
-3.98065 28.0518 37.3584 91 11 32
-6.57553 27.7365 36.7727 84 12 46
-13.5144 24.2372 34.7587 89 23 34
-14.707 23.8864 34.4548 90 52 61
-15.1553 23.9598 34.3751 100 80 88
-15.544 24.1328 34.3246 102 95 107
6.17671 27.3519 38.8941 102 16 40
-5.13099 27.6439 36.619 87 13 34
-15.8644 24.3357 33.8521 104 111 127
14.893 22.4438 39.4228 102 16 41
2.60512 27.6716 37.782 101 32 41
-3.52021 27.8431 36.5498 91 11 42
-6.44092 27.7954 35.9403 103 46 74
-13.7661 24.4696 33.8659 86 36 40
-1.47671 27.9689 36.5587 94 30 52
-12.9221 24.154 33.5458 111 67 63
2.62951 27.5365 36.8995 110 38 71
0.940757 27.9244 36.6172 94 34 45
-4.32017 27.951 35.5348 94 35 45
-14.7035 24.3779 32.7758 105 78 81
-15.4803 24.7236 32.6747 91 86 96
-6.23901 27.8839 34.6916 110 58 84
-12.7268 24.3131 32.7328 114 62 55
0.964448 27.7893 35.7333 104 61 70
-4.73817 27.8885 34.5682 104 48 55
-7.11005 27.9626 34.0894 95 49 80
-14.8959 24.7099 31.9116 88 88 83
-15.2245 24.982 31.8906 82 92 84
-1.31994 27.8922 34.8439 116 83 136
-12.5906 24.3727 31.8907 116 60 68
1.04325 27.751 34.877 103 54 62
0.169886 27.8967 34.7208 123 89 106
-5.98017 28.0697 33.4718 118 71 97
-10.0354 25.298 32.1436 107 53 96
15.4642 22.8442 36.5868 100 18 42
-4.53648 27.9768 33.3209 92 28 32
-10.8574 25.4743 31.5644 107 65 87
-11.8311 24.6567 31.2179 106 68 76
-13.0528 25.0752 31.0369 103 66 63
-13.7367 24.7518 30.8376 98 68 62
-14.5724 24.998 30.7067 117 108 119
0.303844 27.9554 33.8924 102 43 84
-9.72511 25.6534 31.3932 97 51 64
-12.5381 25.0315 30.6964 114 76 76
15.4424 22.6092 35.6764 100 18 40
1.134 27.645 33.5775 112 50 99
-8.69169 26.4957 31.3197 99 56 60
-9.91753 25.9834 30.5341 113 70 83
-10.4786 25.8596 30.3945 122 78 93
-11.099 25.6368 30.225 123 77 87
-12.0734 24.8195 29.8755 121 73 81
-12.7896 25.2636 29.8046 111 65 67
-13.9204 25.0141 29.5234 107 94 93
1.21287 27.6066 32.7201 108 53 75
0.886371 27.8736 32.6994 107 56 72
-4.87702 27.8758 31.4909 112 73 93
-7.55542 26.6047 30.7019 111 71 61
-8.0557 26.5798 30.5925 111 67 56
-14.688 25.2901 28.9708 124 136 152
-0.468562 27.9277 31.9909 100 51 80
-9.27973 26.0678 29.8057 98 49 88
-10.8463 25.8937 29.4453 111 53 79
-11.6434 25.3743 29.1846 108 44 65
-13.7842 25.0737 28.6809 116 96 99
1.29183 27.5683 31.8624 104 53 82
-10.2169 26.0472 29.1662 118 82 103
-12.4086 25.65 28.6333 96 37 44
2.45126 27.8399 31.7222 120 62 87
-4.7318 27.8668 30.2129 98 66 69
-5.17195 27.9401 30.1334 97 66 66
-5.78301 27.7209 29.9649 102 75 84
-9.58829 26.2006 28.8874 124 102 97
-11.2728 25.8292 28.4651 110 64 72
4.42333 27.8684 31.7104 111 66 64
-10.6427 25.9829 28.1864 136 103 112
-12.8961 25.4861 27.6202 96 58 78
-13.4613 25.3615 27.4782 108 89 111
16.2392 22.5468 32.8045 98 18 37
2.14901 27.9713 30.8155 125 99 91
-4.59719 27.9257 29.3804 117 72 80
-11.0785 25.9874 27.6556 124 79 93
4.50278 27.8302 30.8548 128 108 149
-1.00853 28.2207 29.7589 121 86 103
-9.44305 26.1912 27.5998 100 60 78
-10.5654 25.9437 27.3166 138 99 110
-11.0106 26.0171 27.2358 126 79 92
-12.76 25.5457 26.7787 97 60 63
-13.713 25.5938 26.5856 117 114 113
-4.46258 27.9847 28.548 97 37 50
-10.5559 25.8747 26.8663 136 96 101
-11.6228 25.7252 26.6124 105 43 55
16.8719 22.563 31.6432 102 23 46
-1.31224 28.3526 28.8496 123 71 88
-13.2482 25.3817 25.7631 113 96 102
-4.93815 27.8246 27.5449 105 79 86
-5.49248 27.7028 27.4043 108 84 82
-11.4869 25.7848 25.7718 96 35 48
-2.66088 28.3397 27.6902 125 96 152
-5.53888 27.537 26.9267 124 94 114
-9.17192 26.3099 25.923 123 63 54
-10.4107 25.8652 25.5759 111 43 44
-11.7473 26.0857 25.332 94 36 52
-1.43747 28.7079 27.5851 136 93 94
-8.04295 26.4879 25.7583 103 35 49
-11.0223 25.5731 24.9505 98 26 41
4.79545 27.8124 28.3153 138 88 105
-4.23912 27.9373 26.406 107 31 42
-6.74438 26.9599 25.6861 98 21 35
-7.41678 26.6407 25.4822 96 19 32
-1.3033 28.7666 26.7554 100 23 41
-4.34152 27.6742 25.8979 97 19 38
-6.12019 27.1121 25.4106 93 18 35
-10.4991 25.4603 24.1602 97 26 38
4.875 27.7741 27.4583 106 21 41
-5.64285 27.7581 24.7606 94 19 33
-9.47208 25.3729 23.4829 99 22 37
-12.8475 24.5537 22.1589 101 54 64
-6.94705 27.8421 23.6207 97 19 33
-11.1328 24.7906 21.69 99 24 41
1.83234 28.6976 24.8101 99 19 38
-12.1359 24.6693 21.0076 95 35 61
-25.0997 3.7041 14.1425 100 57 83
27.7425 13.1945 26.9768 118 125 137
-6.24545 27.955 22.4807 98 20 37
-10.1617 24.6041 20.9804 103 24 38
1.14422 28.151 23.6852 99 31 48
-12.1176 24.5301 20.0995 95 37 60
-7.04127 27.9954 21.0015 99 21 37
-10.7335 25.0391 19.6156 101 26 42
-12.0992 24.3908 19.1906 96 37 62
-12.4791 24.4942 18.6852 105 60 75
-6.52128 27.8832 20.216 102 39 43
-6.56825 27.7171 19.7342 111 48 49
17.7095 23.1908 23.7116 103 20 37
16.9995 23.6274 23.6433 105 19 46
-4.94703 27.9173 19.6908 119 61 70
-5.55938 27.6975 19.5127 110 47 52
-7.05789 27.6244 19.1696 101 33 36
-10.4024 25.2576 17.9633 101 27 39
-11.084 24.9341 17.7493 98 30 54
-12.3334 24.4843 17.3855 102 62 94
-7.8364 27.0408 18.4425 99 26 36
16.9584 24.2454 22.8912 106 20 50
-4.98261 27.6833 18.7596 115 59 84
-5.48129 27.6589 18.645 96 40 49
-6.48002 27.6101 18.4156 114 51 51
-12.2559 24.4445 16.5077 105 64 96
-3.80592 27.9567 18.6356 100 44 90
-10.1396 25.4462 16.7328 101 25 38
-5.78816 27.7916 17.7269 120 63 79
-6.28756 27.7672 17.6118 110 45 57
-7.57549 27.2281 17.2182 103 25 37
-11.1642 24.4569 15.8638 99 28 56
-12.1785 24.4047 15.6294 106 63 82
-13.1351 24.4522 15.4281 123 107 107
-4.28188 27.7962 17.6218 122 77 113
-3.16302 27.9719 17.4669 123 65 71
-6.6521 27.8022 16.6601 103 23 36
-7.38243 27.3856 16.4132 102 22 36
-11.6526 24.2913 14.835 93 36 66
-5.08659 27.9046 16.5888 121 53 58
1.42924 29.0963 17.8421 109 39 59
-0.0491877 29.0256 17.4994 123 58 88
-4.52068 27.9584 16.2867 111 47 65
-6.51684 27.8614 15.8236 101 21 37
-7.36214 27.2486 15.5095 101 21 36
-9.41131 25.4226 14.6781 101 23 36
-10.2674 24.8013 14.3599 101 25 36
-10.9994 24.3075 13.6517 100 27 56
0.0850953 29.0844 16.6689 120 60 82
-5.64304 28.2679 14.7847 103 22 37
-10.9216 24.2676 12.7729 97 27 53
3.98906 29.0412 16.6592 102 17 39
0.21938 29.1432 15.8385 114 35 53
-6.74633 27.9557 14.0337 101 22 36
4.11042 29.1672 16.2777 101 17 38
-4.44347 28.4046 13.7648 101 21 36
-5.05548 28.1853 13.5814 102 22 37
-6.89812 27.5248 13.0291 100 20 37
-10.5403 24.6563 11.6078 97 27 54
25.4334 18.4615 17.9259 90 16 33
-1.77947 28.7485 13.9967 97 22 47
-2.7714 28.7009 13.764 98 27 46
-3.26801 28.6771 13.6475 96 27 43
-5.98621 28.1666 12.9293 100 26 36
-11.1555 24.3612 10.9633 92 34 65
2.51219 29.4514 14.6731 102 22 38
-4.30847 28.4638 12.93 102 47 59
25.0028 19.2567 17.126 92 16 35
-3.74328 28.5173 12.6297 112 62 73
-9.8292 24.7719 10.4604 100 26 37
-10.4529 24.5468 10.272 99 30 56
25.5848 18.4505 16.6486 93 16 36
-1.96104 29.0077 12.6978 119 65 86
-5.01293 27.9125 11.7751 124 64 65
-5.78336 28.2555 11.6748 111 37 43
-11.0093 24.3513 9.66038 94 36 70
-12.1779 24.8715 9.50826 113 95 93
-4.33282 28.1619 11.5425 118 50 60
-6.55944 27.6731 10.9346 105 25 38
-9.86846 24.5331 9.5124 103 24 39
-10.375 24.507 9.39239 100 27 55
-12.4398 25.1744 9.0695 78 76 61
-4.87769 27.9717 10.9388 113 31 44
-8.82716 25.384 9.48721 103 24 35
-11.5925 24.8577 8.74815 112 94 136
-1.8151 28.9989 11.4151 105 33 52
-10.2384 24.5669 8.54727 98 29 52
-12.3623 25.1347 8.18903 108 111 115
-5.56999 28.2761 9.96795 104 23 36
-11.4558 24.9175 7.90265 121 97 132
-3.56453 28.3043 9.98977 112 39 51
-10.043 24.7264 7.73721 99 30 56
-11.3285 25.047 7.51502 118 94 124
-12.1664 25.2942 7.37851 108 100 103
-4.66412 27.9923 9.23176 105 24 36
-8.57378 24.635 7.60706 102 27 37
-9.58554 24.583 7.36541 102 28 38
-9.96506 24.6866 6.85702 99 30 54
-10.8613 24.834 6.68509 107 69 99
-12.0888 25.2545 6.49765 87 87 85
-1.52301 28.9814 8.84802 105 41 55
-8.48559 24.5256 6.27009 104 26 38
-10.6658 24.9934 5.87508 109 72 101
-12.0112 25.2149 5.6164 120 122 127
-8.9231 24.5295 5.72621 105 27 38
-9.76008 24.7764 5.58935 102 33 53
-10.9868 25.1967 5.40175 121 107 116
-8.84488 24.4897 4.84557 106 28 44
-9.50628 25.0353 4.81566 99 33 52
-10.0127 25.0095 4.69355 95 43 66
5.09854 29.3085 8.69 101 34 48
-5.24646 28.0534 6.02824 106 22 39
-1.29805 28.9344 6.69544 116 42 51
-10.8084 25.9865 3.84016 122 129 140
30.5726 12.7212 9.94729 124 117 125
-2.88926 28.6001 5.81367 105 26 39
-3.27396 28.7714 5.76359 104 23 36
-8.13412 24.6054 3.7005 106 24 37
5.1369 29.1064 7.34368 105 20 40
-8.78562 25.0812 3.21288 106 28 40
-10.5179 25.4758 2.90197 130 117 146
26.7753 19.0493 9.62695 94 18 34
6.67317 29.2062 7.28523 104 17 37
5.20394 29.1358 6.92909 104 20 38
-7.20222 25.1883 3.15889 108 25 39
-8.60067 25.31 2.86286 106 28 40
-2.51765 28.9814 4.66684 105 25 40
26.2443 19.6463 8.76595 95 16 37
-8.52245 25.2704 1.98238 105 30 40
-9.41728 25.4179 1.80842 95 42 69
7.20172 29.0278 6.05804 105 18 38
-2.43899 28.943 3.79666 107 34 54
-7.21232 25.7484 1.95203 105 28 40
26.428 19.8038 7.97077 95 18 32
-10.1176 25.7248 0.825774 137 117 125
8.25919 29.0369 5.43371 107 18 41
1.32694 28.6082 3.71751 103 41 82
-3.85388 28.8331 2.56119 122 62 64
3.2045 29.2915 3.87578 111 52 83
-7.28024 26.2088 0.710287 112 28 43
4.80072 29.488 3.85706 117 64 90
1.13333 28.9352 2.87018 123 69 89
-3.94553 28.5015 1.58085 121 43 49
-6.59316 26.4615 0.485826 111 27 40
3.22928 29.1564 2.97393 127 69 78
-4.2065 28.8005 1.14841 112 26 43
4.49834 29.6201 2.94231 123 55 56
21.1244 23.485 4.9672 132 88 81
-3.40266 29.1763 0.543399 109 23 40
3.3761 29.1477 1.69135 109 21 41
4.15391 29.5882 1.54064 108 19 39
27.4666 19.6896 2.93799 97 21 37
-8.9448 8.99566 131.912 87 13 38
-14.0031 8.71213 131.237 89 14 41
-16.0644 9.24449 130.956 90 18 42
-10.2098 8.925 130.881 99 18 38
-15.9822 7.96191 130.112 99 14 42
-18.1224 9.49887 129.813 107 25 47
-15.0486 7.88962 129.805 111 19 51
-16.6859 6.99989 129.157 106 15 46
-18.2659 8.68863 128.501 108 17 40
-14.8564 6.74259 128.537 118 23 49
-16.6161 6.74761 127.865 116 15 40
-15.349 6.34222 127.603 127 22 35
-17.9534 7.88117 127.245 117 15 40
-18.2168 8.24197 126.775 120 15 40
-15.6746 6.39388 126.689 145 47 104
-16.5039 6.60807 126.576 160 58 127
-17.451 7.71928 126.446 136 30 63
-6.10181 5.00317 127.125 199 111 114
-15.5435 6.45162 125.837 130 33 72
-16.3073 6.69468 125.298 125 28 62
-17.2635 23.7168 120.118 85 14 38
-18.9147 24.0265 119.891 86 12 37
6.14777 16.4289 122.873 83 22 40
-16.5925 24.1704 119.794 84 15 36
-15.0793 24.5214 119.587 86 17 34
4.25651 18.2922 121.786 87 17 37
-16.8264 24.436 118.92 90 26 42
-17.6302 24.6436 118.81 84 17 37
-18.5995 24.4283 118.672 78 20 40
-19.0848 24.3205 118.603 79 28 46
-15.7961 24.6791 118.645 92 25 50
-14.8484 24.7108 118.357 97 39 56
-18.5138 24.3785 117.838 81 36 58
3.05772 19.4338 120.366 88 16 36
-15.6691 24.735 117.82 88 16 36
-16.6359 24.52 117.681 84 26 44
-17.0788 24.518 117.619 95 43 70
3.15787 19.5686 119.96 87 18 38
-12.7956 25.1954 117.809 81 20 51
-14.1991 24.9793 117.609 120 74 111
-16.5088 24.5759 116.856 94 32 69
-17.8381 24.5702 116.668 99 51 76
-18.2816 24.5684 116.606 91 50 66
-14.6351 24.717 116.7 101 45 73
-15.0366 24.8207 116.645 93 28 52
4.44487 19.0205 118.865 93 49 65
3.3484 19.6525 118.722 100 48 64
-13.648 24.8541 116.419 114 61 95
-17.6698 24.7319 115.85 83 26 41
-19.042 24.6205 115.654 106 74 94
-14.5082 24.7729 115.875 99 37 60
-15.7941 24.8729 115.695 88 19 46
-16.2774 24.7655 115.625 91 23 44
3.51195 19.8151 117.904 104 42 60
-13.0799 24.9118 115.658 86 14 34
-18.5124 24.5726 114.882 91 46 90
5.07381 19.1075 117.688 103 51 75
4.67182 19.2113 117.633 100 43 70
-15.6671 24.9288 114.87 94 26 59
-16.5931 24.8196 114.736 93 23 53
-23.6211 22.7719 113.698 106 52 88
-12.552 24.864 114.888 88 13 33
-14.2775 24.9623 114.645 90 15 35
-19.8426 24.3051 113.841 91 24 51
4.50591 19.6915 116.775 99 44 60
-13.4113 24.7829 114.342 87 15 37
-13.7321 25.0974 114.304 89 14 37
-16.4252 24.9812 113.919 89 13 40
-18.2802 24.7625 113.65 87 14 39
-23.5359 22.7214 112.858 81 13 33
-15.5173 24.9072 113.624 88 12 39
4.6329 19.7475 115.95 108 50 71
-13.5651 25.2586 113.488 87 13 38
-22.8752 22.9937 112.107 78 13 32
5.42765 19.3544 115.631 91 38 70
-18.5524 24.661 111.916 93 42 67
8.19045 18.1482 115.149 76 74 88
5.62686 19.6239 114.821 85 27 51
7.32509 19.158 114.206 106 87 96
5.35211 19.7835 113.941 90 30 57
-14.0504 25.6054 111.318 105 58 86
-16.9482 24.9622 110.884 104 54 88
6.58496 19.3935 113.684 90 35 60
-15.4746 25.2067 110.68 98 38 62
7.41643 19.107 113.373 117 98 119
6.31016 19.5532 112.804 84 20 43
5.50651 19.7608 112.694 95 38 73
6.47306 19.7159 111.987 79 23 46
-16.8765 24.4675 108.762 94 48 67
-17.1147 24.9947 108.745 96 49 60
5.73309 19.9514 111.464 104 53 97
-15.7217 25.0281 108.524 103 59 90
9.16514 18.2964 111.484 47 46 59
-17.5959 24.6256 107.815 105 52 62
-18.0813 24.5178 107.741 98 44 58
-17.7664 24.9196 106.529 86 16 34
-17.6579 24.7921 105.268 97 46 71
-17.5942 24.8201 104.854 105 57 81
-17.0003 24.8002 103.667 92 22 47
-23.6226 21.5713 102.559 83 19 39
-15.6056 24.8337 103.449 88 21 41
-25.7494 20.6182 101.778 78 24 43
-16.873 24.8563 102.839 85 26 48
-17.2534 24.8825 102.36 93 50 58
-21.956 22.9765 101.155 98 59 81
-17.1671 24.8327 101.521 108 61 70
-19.8087 23.7605 101.081 103 59 74
-20.7016 23.7564 100.948 99 59 77
-21.275 23.4343 100.849 100 60 79
-17.0397 24.8888 100.693 91 22 42
-19.1929 23.9254 100.328 89 20 40
-19.6169 23.845 99.8346 84 20 42
-20.5098 23.8409 99.7016 86 23 44
-16.9534 24.839 99.8531 84 28 54
-20.8707 23.7885 98.7921 91 46 79
-21.3177 23.7865 98.7254 91 46 79
0.658679 12.7089 99.7297 88 13 36
-13.2238 26.4969 89.8937 85 14 35
-18.1403 23.9663 88.5348 87 24 50
-21.8007 22.4806 87.4372 84 28 48
-13.0332 26.5808 88.6547 97 45 66
-16.082 24.2718 87.5918 101 52 74
-13.9523 26.2123 87.6356 109 61 80
-17.8013 24.2921 86.8992 104 48 81
-21.0314 22.8899 86.2964 91 40 49
-15.8902 24.3562 86.3455 97 32 51
-18.5245 24.451 85.9428 93 29 49
-21.5218 22.5147 85.333 86 23 41
-25.936 19.3567 84.4122 79 20 39
-26.3901 19.3536 84.3414 81 23 44
-3.33887 25.9127 87.9892 91 18 47
-5.09523 25.9063 87.7152 91 19 42
-16.7175 24.3805 85.791 89 19 38
-17.6509 24.2701 85.6373 89 19 39
-21.9496 22.4332 84.8301 79 25 59
-24.4204 20.6157 83.8767 79 32 45
-25.2651 19.6347 83.6706 77 23 37
-17.9693 24.3245 84.7357 83 19 44
-21.7566 22.5182 83.5756 113 124 153
-25.4806 19.8262 82.3515 85 64 76
21.4501 -2.28257 87.5274 80 54 62
20.7853 -1.48848 87.486 72 31 40
3.76215 25.0063 85.6411 92 13 41
-16.629 24.5256 81.9647 126 120 155
-14.9599 25.119 81.4216 119 135 162
-19.9215 23.8213 80.5288 119 128 126
-15.9091 24.8248 80.819 129 133 163
-16.8418 24.7147 80.6621 107 97 131
-17.2879 24.7129 80.5913 101 93 133
-14.7507 25.3873 80.6225 120 132 164
-16.7551 24.6647 79.8147 110 99 132
-17.6062 24.7674 79.6886 114 116 149
-13.9759 25.9747 79.9417 81 94 118
-15.272 24.9111 79.6432 120 136 148
-1.67411 25.7315 81.4499 83 91 95
-14.7221 25.0473 79.3146 111 128 157
-17.4782 24.8238 78.8566 119 115 148
-16.1172 24.7511 78.6382 128 122 146
-8.12126 27.0251 79.6882 121 119 141
-12.0111 26.0652 78.982 103 110 131
-14.4316 25.5279 78.548 111 122 141
-16.84 24.9101 77.68 105 92 128
-17.2862 24.9083 77.6086 119 111 142
-15.9253 24.8356 77.3908 110 101 141
-20.7476 22.7851 76.4331 46 47 56
-10.8152 26.469 77.9303 57 52 60
-16.7533 24.8601 76.8319 100 85 116
-15.7973 24.8919 76.5592 85 78 106
-17.0716 24.9146 75.9281 106 88 111
-20.5545 22.8702 75.1779 43 45 41
-14.656 25.2707 75.9208 70 65 84
-20.5325 22.791 74.7426 42 49 54
-4.49733 27.3627 76.9016 96 85 92
-5.89209 27.149 76.6563 109 53 66
-20.8535 22.8454 73.8329 94 78 70
-14.9502 25.2472 74.5859 95 34 42
-19.3983 22.9881 73.6498 104 69 84
-5.28727 27.3111 75.9195 97 26 47
-18.9269 22.9113 73.2871 85 24 50
-4.66986 27.6546 75.6282 96 21 41
-14.8223 25.3035 73.7549 89 21 43
-19.8454 22.7201 72.6883 83 23 42
-20.2952 22.7177 72.6154 86 27 46
-11.4064 25.9792 73.9464 96 39 63
-18.8402 22.8605 72.4333 86 32 55
-19.7166 22.7768 71.8512 90 42 60
1.86153 27.1294 75.3615 89 12 33
-10.8756 25.9312 73.1727 105 50 80
-1.73629 26.5449 73.8681 91 12 38
-18.948 23.1865 70.7224 93 28 50
-16.1041 24.6159 70.9018 94 30 44
-17.7358 23.8622 70.5581 89 23 43
-19.8665 22.9955 70.1214 84 22 30
-2.12369 26.3891 72.9379 92 16 42
-13.8892 25.6085 70.9366 88 26 63
-15.9577 24.8573 70.5209 95 36 66
-16.8695 24.6686 69.9223 97 46 80
-18.0555 23.9167 69.6497 98 53 81
-13.6975 25.6929 69.6905 111 51 81
-18.9914 23.5405 68.5942 95 41 66
-19.6933 22.8939 68.4104 95 37 62
19.3769 9.51105 72.952 71 14 25
-10.1277 26.7893 69.9648 98 33 45
-19.7955 22.225 67.0235 88 33 42
-19.6665 22.2818 66.1847 85 29 42
-8.74364 27.2762 67.6833 87 24 48
-18.8767 22.8797 65.5157 94 50 70
2.18662 25.7636 68.8945 90 11 36
-19.8388 22.5803 64.89 100 53 81
-6.90459 27.0499 66.6812 89 17 51
-17.0026 23.8301 64.6371 93 40 39
11.9814 20.5979 68.6476 102 39 49
-5.40311 27.3972 66.5436 92 31 84
-15.8362 24.3973 64.4645 95 40 39
-1.93717 27.1206 66.6615 102 36 76
-2.76252 28.4784 66.6818 106 39 80
-3.75329 28.1626 66.4804 106 38 80
-13.0518 25.7124 64.6492 98 38 68
-17.9377 23.4536 63.5742 92 36 49
2.43036 25.6926 66.7958 102 36 53
0.45974 26.3164 66.5405 99 29 46
-15.7078 24.4539 63.6301 93 40 72
-16.1964 24.3451 63.536 89 38 66
-16.8098 23.915 63.3836 89 38 64
-0.31709 26.4465 66 96 32 45
-13.4906 25.4485 63.6857 104 51 77
-14.6268 24.8061 63.4206 99 45 72
-17.809 23.5103 62.7374 104 51 68
-19.9022 22.7485 62.2987 98 47 65
2.08209 25.6415 65.8787 105 52 78
1.31562 25.9543 65.7878 101 43 70
-12.9408 25.5845 63.3637 101 46 65
-15.5794 24.5104 62.7958 104 49 65
-16.6812 23.9717 62.548 100 46 58
-13.8894 25.2904 62.7401 102 38 64
-16.0038 24.4299 62.2839 94 34 58
-18.7464 23.1329 61.6706 93 32 54
-19.4071 22.5921 61.4956 88 27 44
-12.3276 25.7488 62.6262 94 20 37
-14.3121 25.2104 62.2294 91 20 38
-15.8983 24.565 61.8863 88 26 54
-17.0424 23.9191 61.6172 91 37 61
12.393 20.6876 65.7271 93 28 47
2.23578 25.62 64.6216 97 34 51
1.87084 25.8292 64.5857 93 28 49
-14.1665 25.4514 61.8523 87 15 35
-14.8579 24.8106 61.6589 86 15 39
-16.4056 24.2707 61.3342 97 41 67
-18.6175 23.1897 60.8328 96 34 55
-19.6019 22.9699 60.6412 89 35 47
-16.8308 24.19 60.8212 97 44 65
12.4859 20.6368 64.8789 105 43 64
3.60478 25.4701 63.9794 97 37 53
-11.0867 26.2604 61.608 89 14 34
-13.8352 26.039 61.1191 87 14 44
-14.4436 25.6125 60.9645 85 14 48
-17.5061 23.4657 60.1868 95 40 60
-7.72425 26.8272 61.8142 88 11 31
-12.8809 26.0704 60.8534 86 14 33
-13.7306 26.1733 60.7232 87 19 50
12.1054 20.4761 63.937 97 28 40
2.08799 25.8357 62.9155 96 30 60
-11.6468 26.8426 60.7273 87 13 30
-17.419 23.415 59.3293 95 38 53
-18.4856 22.9804 59.0957 92 40 62
-13.5621 26.3357 59.9118 88 29 50
-18.013 22.9034 58.7321 98 46 66
5.78996 26.1147 62.7216 92 13 41
-7.49412 27.0168 60.5921 88 12 35
-7.97529 26.91 60.4975 87 12 35
-3.9396 26.9505 60.7564 108 48 82
-4.79572 26.8704 60.1737 99 35 70
-7.80876 27.0715 59.6894 90 11 36
-12.9254 26.4217 58.7405 83 18 34
-11.0437 26.5617 58.6473 89 10 35
-7.64229 27.2331 58.8816 89 11 35
-12.7975 26.478 57.9094 87 17 34
-13.6876 26.475 57.758 104 42 55
-13.9237 26.7418 56.8921 91 37 36
-7.41226 27.4225 57.6604 95 33 90
-11.6126 26.6994 56.4201 102 29 61
-7.24595 27.5839 56.8535 96 20 36
-12.4051 25.2178 54.3633 87 10 34
-12.4622 24.9263 53.8822 86 12 34
-13.7613 25.0275 53.6731 88 12 35
-14.1674 25.1323 53.6177 87 12 35
-12.3173 25.1677 53.5083 87 19 41
3.16855 27.5702 56.0716 91 26 42
-10.5961 26.0517 53.4946 88 25 40
-11.241 25.5189 53.3101 90 29 46
-13.5109 25.4038 52.9039 89 29 53
-14.7693 25.6118 52.7161 97 42 88
-8.5187 26.7214 53.5146 97 47 62
-9.40548 26.7186 53.3615 94 46 56
-11.7028 25.3325 52.7734 102 53 67
-12.5543 25.4356 52.6411 101 48 62
-9.38119 26.6409 52.9248 106 63 79
-10.9528 26.0004 52.5644 107 62 87
-7.02337 26.8876 52.9363 113 62 74
-8.87374 26.6705 52.5864 114 65 79
-12.8317 25.5968 51.7523 97 41 52
-13.7243 25.5934 51.5978 103 41 62
-6.03626 27.024 52.6967 108 43 66
-10.705 26.375 51.7981 97 36 56
-11.3099 25.949 51.6333 98 40 59
-8.70661 26.8325 51.7781 104 39 70
-9.11055 26.9369 51.723 97 33 67
-12.7035 25.6533 50.9189 93 40 70
-13.5554 25.7563 50.7861 91 39 62
-7.27459 26.9705 51.6158 92 27 45
-8.98286 26.9931 50.8931 96 41 72
-9.98918 26.6729 50.6725 104 52 78
-11.6434 25.8194 50.2629 106 60 89
-13.8329 25.9176 49.8972 110 65 80
2.90876 26.8477 52.5071 92 31 51
-10.2898 26.9113 50.2241 101 52 64
-12.4708 25.8444 49.6911 111 62 85
-10.7499 26.7263 49.6867 106 52 56
-11.2345 26.6189 49.5868 109 53 62
-12.6909 26.2962 49.2866 109 46 60
13.5978 21.8738 52.7853 91 19 35
-8.83076 26.9718 49.6258 97 32 49
-9.27433 26.9704 49.5483 98 33 45
-6.55207 27.0067 49.5978 103 29 59
-10.622 26.7827 48.8554 91 18 35
-11.712 26.2494 48.587 90 20 37
3.52797 26.7507 50.8891 97 24 47
-5.64241 26.932 49.3155 92 18 42
-9.66961 26.8136 48.5952 87 18 41
-6.94504 26.8502 48.6459 92 31 79
-11.6241 26.1997 47.7317 93 43 67
-5.63093 26.6712 48.4188 99 42 69
-10.5099 26.6553 47.5629 106 57 92
-12.5726 25.9057 47.0901 105 60 79
13.8823 21.9075 50.6906 89 14 33
-5.97087 26.8036 47.949 107 58 80
3.81847 26.9677 49.2601 104 48 64
-4.98381 26.9401 47.7124 110 57 78
-11.5525 25.9655 46.4134 111 56 88
-12.4847 25.8559 46.2333 108 51 78
14.4134 21.8595 49.9164 89 21 43
-11.9342 25.9921 45.9182 100 35 52
-5.81819 26.7822 46.6816 96 30 48
-9.9288 26.4514 45.9085 90 25 43
-10.9786 26.0236 45.6587 101 35 55
-11.87 26.0204 45.5015 97 31 46
-12.3564 25.9124 45.3995 97 29 43
14.1668 21.9413 48.5949 89 15 34
12.6909 22.7845 48.465 92 13 36
-11.8223 25.8641 44.621 109 58 77
-12.2685 25.8624 44.5421 109 55 74
-8.72945 26.8567 44.888 112 66 84
-9.73681 26.536 44.6605 111 63 75
-10.2214 26.4284 44.5584 110 60 74
-10.8665 25.8956 44.3619 109 58 74
-2.31794 27.3262 45.6624 115 58 86
-11.7343 25.8141 43.7635 106 41 65
-12.627 25.8108 43.6053 102 32 53
-4.1339 27.0326 44.8657 104 36 54
-5.8641 27.1327 44.5755 102 31 42
-6.3456 27.0258 44.4735 101 29 42
-7.67496 27.0216 44.2378 104 32 49
-10.7783 25.8456 43.5047 99 25 45
-2.63145 27.381 44.7564 103 29 45
-3.62836 27.0621 44.5296 98 23 43
-11.6463 25.7642 42.9056 89 16 40
-12.5391 25.7608 42.747 89 17 42
-2.90704 27.5412 43.8734 93 17 53
-8.73534 27.3136 42.8029 90 27 52
-10.6259 25.824 42.2302 89 27 53
-13.3857 25.6009 41.7049 95 43 60
-9.2096 26.9452 41.7968 109 61 90
-10.0519 25.882 41.4759 109 60 90
-13.9086 25.1217 40.6676 110 58 72
-2.60203 27.9411 42.7028 107 58 81
-8.06075 27.5049 41.6601 108 54 91
-10.9194 25.8006 40.8755 103 44 58
-11.7717 25.9038 40.7404 104 43 44
-14.1869 25.2835 39.7757 91 21 42
-9.09682 26.8179 40.5006 98 21 41
-10.7269 25.8854 39.6242 89 11 30
-15.403 25.3349 38.6981 97 73 101
-10.6386 25.8354 38.7652 90 11 32
-11.125 25.7273 38.6601 90 11 33
15.8632 21.9408 42.4365 110 47 72
-14.6593 24.3806 36.9328 83 31 62
15.553 21.9947 41.5276 95 22 37
14.6765 21.9897 41.3692 93 15 34
-7.5766 26.4611 38.1205 90 11 34
-8.91057 26.4567 37.8799 89 10 30
-12.3514 24.4189 36.9185 88 14 32
-6.58522 26.5984 37.8897 92 10 32
-7.51257 26.4893 37.7043 92 10 32
15.6466 21.9441 40.6734 96 24 37
-2.40615 28.2203 38.486 95 13 32
-3.9205 27.6904 38.1231 95 13 32
-10.1979 26.296 36.7551 90 11 33
-7.711 26.8624 36.8671 88 11 38
-8.5998 26.8596 36.7063 90 12 41
-9.72793 26.2195 36.3935 90 11 34
-12.0771 24.7183 35.7135 91 12 32
-16.3656 24.0564 34.8268 95 97 99
-6.3543 26.7889 36.6672 87 16 31
-10.0297 26.4588 35.9467 89 14 28
-8.55071 26.7039 35.8231 101 37 65
-9.03519 26.5963 35.717 98 36 67
-12.7632 24.9855 34.7652 89 21 38
-16.2363 24.1133 33.9869 86 96 76
-6.67013 26.8438 35.755 107 51 97
-7.55826 26.841 35.5937 90 36 61
15.9319 21.9779 38.5732 99 27 53
14.7538 22.3978 38.4327 94 14 35
-9.83736 26.5435 34.6962 110 81 95
-10.3629 26.3294 34.5637 110 78 98
-11.7387 25.0459 34.0911 112 73 85
-18.4453 23.9446 32.6839 84 80 95
-8.80337 26.7871 34.4931 114 80 111
14.5804 22.8782 37.6223 95 15 36
-7.36622 26.9256 34.3454 93 43 72
-9.7489 26.4938 33.8367 107 72 95
-10.7206 26.278 33.6223 121 84 109
-11.489 25.4233 33.3326 120 80 97
-7.82515 26.7403 33.7966 88 45 59
-8.75436 26.6312 33.6083 117 77 110
-12.0338 25.0221 32.728 116 66 79
14.6395 22.7213 36.7424 97 15 37
-5.90651 26.9861 33.7565 99 46 69
-6.7941 26.9834 33.5944 119 82 84
-10.5923 26.3346 32.7877 117 71 99
-11.2798 25.6935 32.5489 122 72 100
-8.66571 26.5815 32.7489 110 56 53
-9.19037 26.3674 32.6152 107 53 52
-5.77857 27.0424 32.9249 88 39 62
-7.26695 26.6141 32.5766 106 61 89
-11.8406 25.1072 31.4722 108 65 94
-4.15402 27.7088 32.909 97 40 81
-6.11933 27.1752 32.4539 102 61 82
-9.46797 26.5287 31.7258 101 56 93
-6.53811 27.0961 31.9304 109 75 79
-7.17801 26.5644 31.7174 112 77 91
-11.8736 24.7355 30.5282 115 73 93
-15.0164 24.7222 29.9508 113 112 150
16.405 21.9105 34.7599 101 32 49
15.6303 22.2263 34.6753 96 16 37
-1.7415 27.9818 32.5368 124 82 102
-5.58665 27.127 31.6775 125 89 96
-10.1914 26.6887 30.7546 111 78 86
-14.176 24.4322 29.6156 99 73 109
-6.04412 26.9419 31.1272 120 76 88
16.5328 21.9668 33.929 102 31 47
15.3538 22.387 33.7894 95 17 34
14.5796 22.7025 33.705 97 17 38
-6.42412 26.9688 30.6294 114 65 89
-11.6398 24.9278 29.2984 106 46 41
-13.5565 24.5985 28.8862 86 38 72
-14.7815 24.9148 28.7192 128 134 144
-25.9822 7.86199 23.543 113 123 119
15.4475 22.3364 32.9327 95 17 36
14.6731 22.6521 32.8485 97 17 38
-6.21811 27.2371 29.8505 115 91 144
-14.6524 24.9717 27.8802 108 101 102
16.2522 21.9419 32.5754 93 18 31
1.54886 27.8144 30.9554 119 91 93
-0.175323 27.9151 30.6564 119 99 89
-7.12055 27.0507 29.2166 133 113 111
-13.3221 24.7911 27.6552 83 34 68
-12.8086 24.8214 27.3189 84 21 55
-15.464 24.9176 26.8471 96 113 101
-5.6212 27.2171 28.6577 115 53 76
-6.50907 27.2144 28.4933 104 53 61
-7.88169 27.1044 28.2192 113 60 75
-13.6422 24.846 26.7331 98 69 114
-14.5411 24.8423 26.5664 111 115 145
2.1429 27.7945 29.7684 119 50 67
0.0158743 27.9993 29.4137 113 46 70
-7.77826 27.2386 27.8299 109 60 76
-12.6795 24.8782 26.4803 84 21 57
15.3627 22.5816 30.8004 99 17 38
-6.38101 27.2708 27.6609 102 69 108
-8.6831 27.0519 27.1935 109 81 96
-26.588 7.71082 20.23 143 144 120
-8.61897 27.0802 26.7767 128 94 132
-12.5099 25.0423 25.6695 83 20 53
-14.3063 25.0349 25.3353 120 117 99
-14.7971 24.9258 25.2237 112 113 93
15.4564 22.5311 29.9428 96 16 37
2.77375 27.8799 28.6083 126 102 107
-14.2007 25.1707 24.9438 111 114 92
-3.93266 27.4677 26.8529 124 65 55
-8.93605 27.1354 25.8601 105 25 41
-25.8721 7.9206 19.0416 114 122 95
16.696 21.9532 29.1967 96 18 33
-2.46456 27.7109 26.7396 112 37 51
-7.49719 27.2737 25.72 99 20 37
-8.96636 26.7669 24.9149 96 19 36
-12.3737 24.8341 23.9079 87 23 58
-13.6397 25.0432 23.7126 113 91 124
-14.5799 24.9322 23.5162 73 69 86
-7.52622 26.9057 24.7754 96 17 35
-9.06096 26.3696 24.3856 96 17 37
-13.2075 24.8588 23.3203 103 69 106
-25.7453 6.62784 17.4538 88 96 93
-6.61134 26.8305 24.4971 99 17 38
-13.6334 24.778 22.7879 115 98 134
-14.4919 24.8817 22.6479 92 91 103
-25.7689 6.42554 16.9551 102 107 106
-5.3609 27.5259 23.9986 108 54 55
-7.25525 27.2028 23.581 100 16 34
-10.3151 23.7752 22.3367 99 18 36
-13.5861 24.62 21.8907 112 92 107
-3.0805 27.5603 23.9986 120 66 75
-10.3713 23.4804 21.8304 98 20 37
-14.3392 24.8597 21.3592 75 88 71
-7.57199 27.2579 22.6639 99 17 35
-14.6834 24.9937 20.8834 93 109 95
-4.6866 27.7175 22.8621 118 58 75
-5.57386 27.715 22.6951 112 40 53
-10.6511 23.643 20.9339 98 20 37
-13.0242 24.4923 20.6573 108 71 104
-14.6188 25.0222 20.4633 97 99 98
-3.29323 27.7493 22.6966 128 79 108
-6.99881 27.3157 21.9141 98 17 32
-14.963 25.1563 19.9875 87 92 96
-5.92864 27.6644 21.7507 100 20 33
-13.8359 24.4376 19.6177 107 100 107
-14.1629 24.7586 19.6204 91 90 91
-4.0129 27.9089 21.7266 114 43 46
-7.91823 26.9448 20.7975 99 18 35
-10.4168 23.8362 19.7021 98 20 37
-24.806 6.55253 13.5184 94 96 85
-25.186 6.77827 13.4923 97 102 82
-1.29397 27.9441 21.8127 111 51 89
-3.10141 27.8338 21.4497 112 45 81
-5.83944 27.6149 20.8895 105 46 70
-13.7066 24.4946 18.7768 106 93 97
-14.0747 24.7079 18.7505 90 83 78
-4.4438 27.6468 20.7251 96 33 49
-10.2875 23.8932 18.8617 100 18 37
-1.20401 27.8948 20.9537 121 69 96
-2.53085 27.8913 20.7023 130 78 107
-3.37808 27.9946 20.5633 109 49 75
-13.9043 24.8725 17.9395 76 74 49
-14.6811 25.1912 17.8576 78 78 89
-24.6496 6.52536 12.1758 103 113 104
-25.0296 6.75115 12.1499 113 118 109
-26.1687 7.42795 12.0725 144 140 103
-6.80991 26.9544 19.2683 124 52 94
-7.25528 26.953 19.1838 109 35 62
-25.0077 6.66481 11.6809 116 121 110
-2.44108 27.842 19.8424 130 81 79
-3.28848 27.9453 19.7031 111 46 66
-7.19109 26.9813 18.7665 111 39 57
-10.7099 24.7276 17.6379 100 18 37
-8.82116 26.0464 17.8297 101 19 38
-13.7103 24.9579 16.6787 95 106 111
-26.4832 7.39499 10.64 153 146 112
-24.9689 5.13146 10.0036 95 104 105
-24.9417 6.40548 10.2723 106 121 108
-2.28731 27.8208 18.5663 106 42 56
-9.37883 25.4599 16.729 100 22 40
-14.0723 24.9054 15.7222 101 106 119
-24.494 6.20903 9.86038 107 118 114
-8.54868 26.3449 16.6341 100 20 37
-2.56404 27.9816 17.6797 108 48 67
-10.5077 24.5475 15.4486 98 21 39
-13.1244 24.751 14.993 106 95 106
-13.8371 25.0984 14.4914 103 105 114
-9.96961 24.4988 14.6642 102 20 39
-5.99816 27.8452 15.6931 103 20 39
-25.4347 6.68703 7.49956 148 154 120
-7.58314 27.0205 14.7798 101 20 36
-9.31143 24.7726 13.9713 103 20 40
-24.5612 6.38063 7.14497 109 121 106
-9.98376 25.2266 13.5013 101 21 39
-24.6935 7.10034 6.81657 121 129 113
-5.8448 27.824 14.4131 100 17 34
-8.37579 25.7957 13.4934 100 21 37
-12.2457 25.0314 12.5879 116 98 135
-9.36625 25.3925 12.7793 100 22 38
16.8999 24.4641 17.1867 115 52 58
-5.3498 27.6697 13.6046 100 19 49
-7.20815 27.4525 13.2007 101 20 35
-8.20725 25.9594 12.6864 101 20 36
-6.65934 27.5882 12.8998 99 23 35
-7.14394 27.4808 12.7833 100 21 34
16.9938 24.4141 16.3275 113 52 59
-5.26035 27.6202 12.7404 110 49 77
-11.9871 25.1453 10.9069 116 102 141
-14.1146 25.4587 10.5655 96 105 98
-14.7714 24.9192 10.3216 94 101 88
-4.63563 27.9676 12.5012 113 62 81
