ply
format ascii 1.0
element vertex 1315
property float x
property float y
property float z
property uchar red
property uchar green
property uchar blue
end_header
2.78116 -29.4878 11.7779 124 103 110
3.57682 -29.2165 11.7863 158 123 134
4.87492 -29.075 11.8283 188 132 135
5.79488 -29.1221 11.872 170 79 83
6.62998 -28.9574 11.8921 171 58 81
7.46432 -28.7927 11.9121 171 60 93
8.71444 -28.546 11.9422 172 58 82
9.46501 -28.1698 11.9387 175 61 82
10.5501 -27.4993 11.9218 175 64 82
11.7977 -27.2535 11.9519 182 66 75
12.709 -27.3021 11.9953 185 68 79
17.4245 -24.433 11.9259 180 68 75
17.9793 -23.5221 11.8637 165 87 115
18.7303 -23.1456 11.8602 204 176 216
19.4037 -22.5545 11.8332 200 195 217
20.7908 -21.4784 11.7909 181 104 67
21.6499 -20.1573 11.703 177 84 69
22.7031 -19.3745 11.6741 183 106 85
23.3421 -18.6713 11.6351 175 96 63
24.7743 -17.698 11.6044 177 93 54
-15.1486 -25.1765 10.1758 102 26 33
-8.22327 -28.2995 10.7704 152 43 54
-7.14429 -28.6701 10.852 155 63 74
-0.115995 -30.1744 11.2973 110 113 132
9.83881 -27.9825 11.5172 170 65 74
-9.39893 -27.7127 10.2371 150 37 48
-6.18021 -29.8724 10.5835 143 59 75
-5.37697 -29.599 10.5921 159 115 144
-4.4851 -29.5393 10.6251 78 68 110
-3.46175 -29.7996 10.6944 83 81 116
-2.57291 -29.7399 10.7273 50 42 65
-1.22003 -29.7038 10.7825 86 89 104
0.302796 -30.0924 10.8857 149 138 153
1.64834 -30.0559 10.9406 57 49 95
2.48689 -29.8904 10.9612 50 48 81
3.65861 -29.4304 10.9679 171 164 185
4.49573 -29.2653 10.9884 124 95 125
19.7376 -22.2604 10.979 211 195 194
20.3732 -21.5609 10.9396 203 145 132
21.3089 -20.4558 10.8744 179 77 54
22.6235 -19.1594 10.8073 201 117 101
23.64 -18.2668 10.7659 182 105 72
24.6577 -17.373 10.7245 177 97 56
25.6768 -16.478 10.6831 174 86 46
-8.04434 -28.7312 9.96757 153 39 46
-0.713253 -29.8344 10.3947 135 143 163
5.87409 -29.3366 10.6348 145 109 174
8.83335 -28.8662 10.7189 177 147 182
9.58343 -28.4903 10.7154 172 139 197
10.6678 -27.8202 10.6982 176 148 218
11.4181 -27.4442 10.6948 174 136 182
12.624 -27.0925 10.7136 164 96 146
13.9089 -26.9535 10.7564 177 118 184
14.6581 -26.5779 10.7529 174 117 179
17.3416 -24.222 10.643 176 60 73
18.3503 -23.3365 10.6017 178 111 145
23.9776 -17.9699 10.3302 184 97 61
24.958 -16.9666 10.2763 171 83 45
-6.13837 -29.9809 9.74731 153 43 57
-4.57709 -29.3275 9.75267 160 119 120
-3.08633 -29.6117 9.84604 130 107 122
-2.15386 -29.6587 9.89173 73 58 85
-1.26669 -29.5991 9.92508 154 133 148
7.95787 -28.9257 10.2665 111 86 118
12.9975 -26.9054 10.2924 189 147 154
15.7014 -25.8027 10.3045 193 136 132
16.6289 -24.7059 10.2388 175 71 73
22.6205 -19.1612 9.96422 169 78 73
23.5989 -18.1598 9.91005 172 84 71
24.6547 -17.3747 9.88032 171 84 63
25.6738 -16.4798 9.83829 170 81 44
-5.38151 -29.6017 9.31966 158 54 52
-0.846781 -29.517 9.51303 114 93 107
2.48239 -29.893 9.69789 59 56 98
3.69649 -29.5391 9.71722 156 148 180
4.57554 -29.4799 9.75052 72 49 71
5.49539 -29.5267 9.79601 58 47 83
6.74736 -29.2794 9.82747 174 159 176
8.87144 -28.9737 9.892 133 119 141
9.58044 -28.492 9.87636 145 117 134
10.6648 -27.822 9.85899 111 70 103
11.8711 -27.4701 9.87818 132 106 135
12.9156 -26.6938 9.84861 171 147 158
13.7459 -26.5304 9.86954 154 118 130
14.4958 -26.1545 9.86608 153 116 130
15.9166 -25.1895 9.83478 189 138 155
17.3778 -24.3306 9.81567 175 57 70
18.3864 -23.4453 9.77383 167 89 104
19.3962 -22.5589 9.73194 205 192 214
20.4074 -21.6712 9.68999 211 171 176
23.9365 -17.8628 9.47405 168 86 78
24.9171 -16.8592 9.41939 176 96 59
-4.62465 -29.2224 8.89201 158 51 57
-3.13347 -29.5068 8.98692 160 125 136
1.59947 -29.9534 9.24316 103 89 126
14.4146 -25.9425 9.42209 65 59 129
16.2507 -24.8957 9.40115 171 101 118
21.2644 -20.3513 9.17767 178 77 57
-2.15838 -29.6613 8.62291 127 105 156
-1.27122 -29.6017 8.65709 86 62 107
-0.298367 -29.755 8.71628 68 52 85
1.55509 -29.8482 8.80932 77 53 87
2.85582 -29.7061 8.85399 81 76 122
3.6511 -29.4348 8.86297 132 123 165
4.57254 -29.4816 8.90928 59 43 86
5.49239 -29.5285 8.9555 58 47 86
10.9557 -27.4234 8.99327 95 90 134
15.874 -25.0847 8.98318 154 103 140
16.6244 -24.7085 8.97972 177 76 75
18.3834 -23.447 8.93387 167 75 90
19.3543 -22.4532 8.879 204 181 216
20.4044 -21.6729 8.84893 211 179 179
21.2629 -20.3522 8.7565 178 81 62
22.616 -19.1638 8.69958 172 84 64
23.5943 -18.1624 8.6443 177 94 61
24.6502 -17.3774 8.61401 185 100 63
24.9141 -16.861 8.57463 183 95 57
25.707 -16.5916 8.5837 172 78 46
8.82587 -28.8706 8.62126 62 52 97
9.49405 -28.2828 8.59287 68 71 107
11.8262 -27.3667 8.60743 113 111 121
12.9111 -26.6964 8.58978 99 88 108
13.7014 -26.4267 8.59879 69 63 97
14.4515 -26.0507 8.59533 124 130 148
23.894 -17.7565 8.19538 174 75 59
-2.11757 -29.7695 7.78977 165 93 88
-1.27423 -29.6034 7.81177 150 111 111
-0.388165 -29.5441 7.84646 138 103 105
1.46625 -29.6377 7.94108 104 95 125
2.81025 -29.6018 7.99918 72 62 84
14.7852 -25.7571 8.16152 152 165 184
20.6615 -21.163 7.96823 212 177 179
22.5747 -19.0571 7.84379 174 68 51
23.5532 -18.0554 7.78775 172 72 55
24.6093 -17.2702 7.75707 169 77 51
25.6663 -16.4842 7.72638 172 70 44
-17.0396 -25.1904 6.21121 119 98 117
-16.5578 -25.2163 6.23616 142 102 110
3.18528 -29.414 7.57626 94 81 112
4.56804 -29.4843 7.64741 80 75 106
5.4879 -29.5311 7.69473 139 139 161
7.90758 -28.8251 7.73506 53 50 81
8.74064 -28.6607 7.75692 55 48 79
9.45004 -28.1785 7.74081 115 111 143
10.6167 -27.7203 7.74828 140 113 155
11.8232 -27.3684 7.76839 132 102 145
12.9081 -26.6981 7.75056 109 85 115
13.6984 -26.4285 7.75975 71 53 102
14.7439 -25.6515 7.72925 131 108 148
15.4546 -25.1687 7.71313 175 130 146
16.5805 -24.6043 7.70794 176 62 71
18.3789 -23.4497 7.67394 166 59 83
19.3498 -22.4558 7.61796 198 157 190
19.9852 -21.7564 7.57635 204 191 214
20.9977 -20.8674 7.53295 197 152 154
21.2969 -20.4628 7.50572 187 114 108
22.8737 -18.6519 7.39482 171 67 51
23.891 -17.7583 7.35118 167 83 66
24.9474 -16.9727 7.32031 167 78 49
-17.2825 -25.7134 5.82175 113 114 131
-0.0569336 -29.2501 6.98705 162 53 54
9.36653 -27.9673 7.29549 118 111 147
14.032 -26.1349 7.32576 73 49 82
23.5502 -18.0572 6.94373 168 72 67
24.6063 -17.2719 6.91268 187 106 97
1.83868 -29.4514 6.67442 151 122 125
2.80575 -29.6045 6.73564 116 105 127
3.6436 -29.4392 6.75802 82 69 117
6.9877 -28.7795 6.8473 49 34 70
7.78046 -28.5089 6.85671 81 78 113
8.57294 -28.2385 6.86611 70 59 97
9.69954 -27.6738 6.86092 145 138 173
10.4914 -27.4035 6.87032 124 115 143
11.7797 -27.264 6.91652 58 51 84
12.8649 -26.5936 6.89849 69 63 98
13.6554 -26.3238 6.90788 52 54 95
14.7807 -25.7597 6.90269 89 100 126
15.4516 -25.1704 6.87354 149 111 126
16.617 -24.7129 6.8812 175 62 70
18.4149 -23.5585 6.84684 175 57 73
19.3468 -22.4575 6.77727 183 119 145
20.6184 -21.0578 6.69289 199 192 204
21.8932 -19.6543 6.60828 174 75 62
22.6085 -19.1682 6.59184 174 59 58
22.8707 -18.6536 6.55117 176 58 56
23.888 -17.7601 6.50697 179 82 71
25.7371 -16.7052 6.48527 168 64 48
-16.5144 -25.3286 4.95557 151 109 109
0.274463 -28.956 6.12726 164 51 60
19.9419 -21.6513 6.30148 200 181 207
20.5782 -20.9508 6.25896 198 196 204
21.2924 -20.4654 6.24247 208 179 167
-17.721 -25.7998 4.51586 65 54 60
-0.23502 -28.8265 5.66682 163 44 56
3.55579 -29.2287 5.88982 174 117 109
6.94308 -28.6752 5.99373 67 52 94
7.69464 -28.2985 5.99026 123 127 159
8.48749 -28.028 5.99986 109 105 137
9.61459 -27.463 5.99467 89 68 123
19.3438 -22.4593 5.93657 169 88 111
20.9145 -20.655 5.82312 203 193 198
21.5904 -20.0614 5.79339 201 157 156
22.6055 -19.1699 5.74875 171 62 54
23.5457 -18.0598 5.67769 171 57 53
24.6018 -17.2745 5.64609 171 59 49
-0.571038 -29.1234 5.25902 166 44 57
1.15626 -28.8987 5.31848 169 48 61
8.82049 -27.7343 5.56472 116 94 117
10.8216 -27.1117 5.59552 96 72 105
11.6943 -27.0542 5.63145 72 57 85
12.4852 -26.7843 5.64112 107 99 118
13.6509 -26.3264 5.64905 69 53 81
14.7364 -25.6559 5.63074 130 111 126
15.4869 -25.2797 5.62728 153 118 144
16.9877 -24.5274 5.62037 174 58 66
18.0351 -23.7493 5.58892 176 53 63
19.9389 -21.653 5.46005 197 153 190
20.2376 -21.249 5.43192 202 180 207
21.9271 -19.7652 5.35715 199 137 143
22.7897 -18.4389 5.25915 170 59 54
23.0523 -17.9233 5.21756 172 58 54
-17.2421 -25.8273 3.67913 54 45 59
-16.0378 -25.3571 3.68771 120 67 76
0.561256 -28.556 4.83104 170 47 57
17.6582 -23.9383 5.17076 180 52 63
20.8729 -20.5488 4.96764 204 189 208
21.5874 -20.0631 4.95085 212 181 189
22.6025 -19.1717 4.90565 172 78 67
23.8439 -17.6547 4.80518 172 53 54
24.5609 -17.1672 4.78832 170 54 49
-18.4985 -25.1188 3.11099 73 56 80
1.40174 -28.3914 4.43176 170 46 53
6.5628 -28.8662 4.73443 185 101 86
7.60725 -28.0888 4.70254 174 86 72
8.73509 -27.5234 4.69734 178 125 162
9.61009 -27.4657 4.73391 139 111 165
10.8594 -27.2197 4.7687 114 88 143
12.5225 -26.8923 4.81501 169 141 164
13.6879 -26.4346 4.82312 98 76 103
14.7334 -25.6576 4.79134 93 74 104
15.4839 -25.2815 4.78788 118 82 107
16.5306 -24.5037 4.75607 176 76 70
17.9929 -23.644 4.73582 178 51 61
18.6658 -23.0532 4.70569 174 53 57
19.6375 -22.0586 4.64709 163 76 79
21.9241 -19.767 4.51443 208 178 184
22.8632 -18.658 4.44205 169 69 65
23.1257 -18.1427 4.39993 172 58 47
-17.4378 -25.391 2.7602 68 46 57
-16.1365 -25.1398 2.79726 107 42 41
2.54085 -28.9725 4.12759 170 47 59
3.42241 -28.9136 4.16464 172 49 61
7.52274 -27.877 4.25511 175 62 69
15.7784 -24.8808 4.33964 185 112 102
18.9621 -22.6511 4.25693 171 53 61
19.9344 -21.6557 4.19791 166 88 98
20.1943 -21.1438 4.15574 187 133 150
23.8409 -17.6564 3.96079 174 53 47
30.2302 0.516435 2.32434 156 68 79
-18.6472 -24.7908 2.20377 100 68 77
5.64069 -28.8205 3.84306 174 52 62
6.68567 -28.0425 3.81075 176 56 64
7.47976 -27.7716 3.82084 176 55 66
8.73209 -27.5252 3.85628 176 64 70
9.60709 -27.4674 3.8934 182 82 72
10.8157 -27.1152 3.91524 180 86 72
12.4792 -26.7878 3.96231 183 85 75
13.6048 -26.2236 3.95712 177 110 83
14.6906 -25.5527 3.93844 175 109 84
15.4015 -25.0699 3.92148 182 97 82
16.4881 -24.3985 3.90278 178 57 71
17.9899 -23.6457 3.89586 179 53 67
18.9216 -22.5446 3.82304 171 54 62
20.8297 -20.4433 3.69051 205 175 191
21.9211 -19.7687 3.6717 201 190 206
22.6362 -19.2827 3.65462 207 170 166
23.1991 -18.362 3.58302 175 85 65
31.3428 4.05205 1.56429 143 101 93
31.6714 5.85377 1.38587 158 144 128
-17.0069 -25.309 1.90955 109 47 48
-16.0439 -25.3607 1.96325 108 31 31
4.34206 -28.9627 3.37295 173 49 59
6.97714 -27.6419 3.36081 175 52 64
11.6058 -26.8459 3.5053 174 54 64
13.8985 -25.8234 3.50851 183 72 75
15.815 -24.9893 3.51345 183 62 74
17.3161 -24.2368 3.50653 182 53 70
19.296 -22.3571 3.40087 172 55 61
20.1913 -21.1456 3.31375 170 73 98
21.2048 -20.2554 3.26751 204 180 203
22.9351 -18.8778 3.20402 202 157 154
31.2151 3.03707 1.2331 154 105 92
31.283 9.92944 0.486611 160 157 134
-18.0699 -25.0385 1.39494 106 43 39
6.47388 -27.512 2.90016 175 51 63
7.72852 -27.2654 2.93625 176 54 63
10.2737 -26.8796 3.02201 177 53 66
20.8267 -20.445 2.84797 190 127 151
21.8797 -19.6622 2.81519 200 189 201
22.5567 -19.0676 2.78411 204 185 211
23.7983 -17.5501 2.68035 168 79 63
24.7794 -16.5455 2.61966 170 53 52
31.8559 5.26281 0.587 158 143 125
11.5622 -26.7413 2.65156 178 53 65
14.6861 -25.5554 2.67905 179 55 72
15.5557 -25.499 2.71688 180 53 71
16.9772 -24.5336 2.68244 179 54 67
17.7667 -24.2642 2.69275 176 53 65
21.1632 -20.149 2.4111 191 137 152
22.4786 -18.8514 2.33466 202 188 207
30.4986 1.05481 0.546253 178 142 126
31.0863 2.0245 0.469102 161 109 83
31.4507 3.69786 0.303076 144 95 85
31.6898 4.36167 0.242006 149 118 101
20.4084 -20.5275 1.9932 167 59 54
21.7613 -19.3388 1.93031 206 173 200
22.7776 -18.4459 1.88307 200 191 199
23.3414 -17.5231 1.80942 200 178 177
24.7385 -16.438 1.76027 165 63 64
21.1216 -20.0425 1.5543 170 79 79
22.0985 -19.0422 1.49275 205 175 186
23.7923 -17.5536 0.99119 199 183 202
24.7733 -16.549 0.929022 182 130 139
25.529 -16.1702 0.925539 166 73 77
20.4426 -20.6382 0.743362 173 51 59
21.7184 -19.233 0.650833 171 84 82
22.6965 -18.231 0.588435 202 179 185
24.0922 -17.1471 0.538519 197 183 190
19.6101 -20.8006 0.296881 174 51 65
22.0924 -19.0457 -0.194549 166 59 70
21.1527 -20.1551 -0.538445 172 49 59
30.6123 -8.86855 84.3475 143 40 49
2.29524 -30.4887 83.8061 163 44 51
31.8224 -6.68536 83.5412 120 46 48
1.55526 -30.8936 82.9613 159 50 48
2.42107 -30.683 82.9523 160 46 52
27.0191 -16.2153 82.9339 159 46 58
-4.71612 -29.7547 82.6733 152 38 45
29.6995 -10.6892 82.6189 146 41 50
31.8264 -6.68483 82.2679 82 65 51
2.9496 -30.7232 81.6742 149 82 96
8.07655 -30.2013 81.6074 172 137 138
23.8094 -19.0104 81.6503 166 57 55
31.2002 -7.29164 81.8376 131 88 62
-7.24371 -28.9932 81.45 143 43 38
7.43895 -29.9663 81.2025 185 168 203
29.759 -10.7904 81.3469 145 51 56
3.07502 -30.9173 80.8223 156 102 113
6.40039 -29.8839 80.7988 190 181 196
26.1787 -17.2629 80.8179 154 61 58
28.9568 -12.8068 80.8865 152 78 81
-3.57799 -29.9355 80.518 148 45 49
2.61351 -30.9737 80.4051 150 88 89
7.44157 -29.966 80.3605 200 188 215
24.3217 -18.2122 79.9809 189 164 173
30.0069 -8.60664 80.1261 154 79 78
-3.04248 -29.9768 79.6573 154 50 47
2.61614 -30.9734 79.5598 179 161 185
29.0297 -11.1901 79.2338 165 111 45
29.2029 -10.6338 79.2438 161 95 46
31.7803 -6.58054 79.2998 63 85 62
5.45022 -30.7311 78.6848 200 180 199
26.5261 -16.1635 78.7358 187 170 155
25.1732 -17.163 78.3104 196 187 204
-7.23303 -28.9918 78.0203 168 98 94
24.6104 -17.0134 77.899 200 186 205
-7.29495 -28.8924 77.1654 173 93 120
-6.88545 -28.7368 77.1641 179 98 125
-3.56736 -29.9341 77.1073 155 118 134
-0.93928 -30.8825 77.0624 188 177 205
-7.29362 -28.8922 76.7366 165 87 97
-6.28182 -28.8782 76.7269 159 80 88
-3.56604 -29.9339 76.681 168 147 162
-0.874133 -30.9797 76.2112 188 179 193
3.0895 -30.9154 76.1751 169 55 62
25.068 -16.1119 76.2256 189 115 147
-6.21487 -28.9768 75.868 158 118 130
29.2135 -10.6324 75.8587 169 101 89
30.3613 -8.35301 75.8866 130 49 54
-7.22501 -28.9907 75.4481 136 72 81
-0.933992 -30.8818 75.3646 197 158 162
28.1886 -12.246 75.4183 186 178 179
31.4507 -6.83108 75.4778 67 71 56
26.6586 -13.8036 74.9839 188 148 182
-0.465017 -30.8246 74.5131 165 60 63
28.1353 -12.1443 74.5751 185 177 190
-6.74723 -28.9336 74.1594 141 88 109
-3.81185 -29.5394 74.1304 193 159 170
30.1998 -8.04453 74.1958 138 49 51
31.7506 -5.60365 74.2194 86 98 102
31.7049 -4.62582 74.2335 91 105 112
31.659 -3.64491 74.2477 94 107 119
-2.02339 -29.9592 73.6864 158 56 51
28.4222 -11.7916 73.7327 183 177 188
29.1644 -10.5297 73.7448 182 175 184
28.0834 -12.0425 73.3088 182 151 172
30.2024 -8.04418 73.3472 139 54 44
31.587 -5.29287 73.374 52 70 58
31.763 -4.7292 73.3802 50 73 59
31.7269 -2.86962 73.4042 48 72 53
27.2326 -13.099 72.8779 156 50 64
28.4249 -11.7912 72.8872 181 148 169
31.9406 -4.16465 72.9603 48 75 54
28.0861 -12.0421 72.4632 160 85 103
29.0568 -10.3254 72.4781 182 172 190
30.2051 -8.04382 72.4985 161 99 102
31.4693 -5.95878 72.516 76 62 53
28.6574 -11.3365 71.6226 159 90 104
30.8534 -5.69395 71.2455 127 55 55
30.8475 -6.56603 70.3872 158 98 98
30.856 -5.69359 70.3944 139 67 74
28.2665 -11.4854 69.9305 156 43 55
31.6072 -4.41644 69.9768 135 80 110
29.7057 -7.98662 69.5293 175 157 172
30.739 -6.35928 69.5388 173 141 136
30.8587 -5.69324 69.5432 155 106 101
-10.7931 -28.9875 68.1609 148 115 92
30.5203 -5.94546 68.2653 176 163 169
30.5216 -5.94528 67.8398 174 166 172
31.6138 -4.41555 67.8466 138 60 59
31.4417 -4.97922 66.5669 167 138 127
31.5717 -3.43331 66.5707 137 63 65
31.5812 -2.55323 66.5728 133 44 56
31.4074 -3.12001 65.7172 149 88 90
31.2234 -4.56367 65.2891 171 156 162
27.9374 -12.5938 64.8531 154 55 63
29.5596 -6.80549 64.8575 143 41 58
30.252 -5.42643 64.8596 148 95 120
31.4658 -3.22408 64.8634 162 113 112
26.7974 -15.7073 64.4288 178 174 195
-11.2751 -29.7947 63.8555 168 116 124
30.8931 -3.93909 64.0081 168 156 162
27.7736 -12.2895 63.5842 173 133 131
28.3422 -11.5844 63.5855 152 67 68
-11.6843 -29.9507 62.9934 145 67 56
24.7683 -18.9006 63.1638 168 132 165
30.0897 -5.11453 63.1536 136 47 74
31.0718 -3.37253 63.1541 167 151 157
27.3202 -13.1959 62.7391 117 121 145
27.7762 -12.2891 62.7387 169 166 186
28.3448 -11.584 62.7396 168 125 118
29.3164 -9.86585 62.7394 145 44 50
-12.3574 -29.7098 62.1275 125 55 42
26.9683 -16.8556 62.3298 41 32 77
28.9709 -10.9798 62.3182 146 74 71
29.2878 -6.28792 62.3007 140 48 62
-11.4656 -29.4961 61.702 137 98 106
28.6877 -11.3325 61.8949 169 131 145
29.2013 -10.5248 61.8946 140 84 110
29.6318 -6.03477 61.8759 143 64 66
26.9709 -16.8553 61.4894 32 29 66
27.5479 -13.5991 61.4759 35 32 58
28.9736 -10.9794 61.4721 159 140 146
29.7168 -9.71586 61.4708 155 131 145
29.6751 -7.88049 61.4604 157 132 131
31.6626 -1.7736 61.4417 160 116 107
-11.1823 -29.1407 60.8411 156 77 87
-10.1621 -29.1264 60.8492 135 46 67
29.7879 -8.08575 61.0378 165 162 170
28.8032 -11.535 60.6284 143 146 152
29.7751 -9.81753 60.6249 162 158 157
29.6917 -6.13765 60.5992 168 157 162
-10.1594 -29.126 59.9891 131 95 112
29.7905 -8.08539 60.1887 133 125 142
30.099 -5.11328 60.1694 165 146 144
31.6666 -1.77306 60.1585 165 133 117
24.4971 -20.0905 59.8117 155 103 125
25.6209 -19.5413 59.8178 181 165 186
31.8449 -1.20379 59.7278 154 107 94
-12.0338 -27.8438 59.0992 139 119 135
-4.61805 -28.9981 59.1826 163 156 185
28.1171 -13.7509 59.3727 29 25 60
29.7932 -8.08504 59.3397 40 38 66
-13.5246 -27.1547 58.6454 141 135 147
25.6795 -19.6398 58.9812 189 170 197
29.0372 -11.08 58.9355 34 29 63
29.4954 -10.1703 58.9317 32 29 63
-14.6212 -27.0661 58.1996 148 140 154
27.8363 -14.1016 58.5299 28 24 61
30.3121 -7.27187 58.488 27 31 71
30.7988 -3.72849 58.4577 137 99 88
31.6622 -2.65439 58.4562 154 136 141
-14.6868 -26.9654 57.7643 149 142 154
-12.5596 -27.0419 57.7892 124 121 134
30.2097 -6.19395 58.0505 37 39 77
31.6174 -1.6672 58.0179 158 144 157
31.8044 -0.211829 58.0045 144 109 113
31.1359 -4.35261 57.6149 141 131 156
-15.3015 -26.8199 56.8876 138 124 143
-14.5361 -26.4052 56.8921 141 134 146
0.923257 -28.9695 57.113 143 48 57
31.0727 -5.12454 57.1971 140 143 155
31.7775 -2.86285 57.1786 158 152 160
31.7316 -1.87664 57.1661 156 150 158
30.476 4.12914 57.0785 147 116 112
31.0585 4.85745 57.0769 127 68 71
31.1853 -5.33163 56.7753 143 151 162
31.7427 -0.992304 56.7274 134 141 160
30.6554 4.70829 56.6413 138 109 108
31.7343 -1.87628 56.3108 84 83 121
30.8916 5.18055 56.2056 134 100 99
-15.4319 -26.6178 55.5808 129 114 136
30.2566 -8.03691 55.949 28 28 58
31.6968 -5.38911 55.9317 140 131 143
31.8174 -4.72192 55.9241 116 102 115
30.6581 4.70865 55.7763 131 121 124
13.7167 -28.0566 55.5823 141 46 67
17.8478 -27.6612 55.6353 176 60 97
23.8912 -19.8436 55.6068 53 42 83
31.0105 -0.509181 55.4252 34 29 60
30.4167 3.33763 55.3604 39 47 75
30.9509 5.07325 55.3426 127 106 109
18.0703 -27.2193 55.2142 166 72 101
31.2281 -7.17765 55.1014 137 135 144
31.0768 0.273781 54.9853 30 27 53
30.5475 4.92412 54.9064 90 88 97
-16.2614 -26.9314 54.2705 126 107 119
11.6365 -29.4535 54.7344 162 50 65
12.8685 -28.2632 54.7342 165 48 74
15.4522 -26.0749 54.7385 185 63 117
16.6494 -26.4539 54.7628 174 71 120
19.1872 -25.8382 54.7915 192 174 212
30.5324 3.12412 54.5022 29 30 59
-16.4745 -27.3907 53.8403 121 98 116
22.9368 -19.8468 54.3328 151 144 174
-2.33085 -30.9457 53.6958 59 62 95
18.7389 -25.8917 53.949 191 178 206
31.8597 -6.56991 53.8277 47 44 74
31.7551 4.47116 53.6356 112 96 96
10.8295 -28.927 53.4535 163 53 62
23.7832 -17.9531 53.4726 105 101 128
31.8808 -4.82459 53.3723 47 34 46
31.5573 -3.32351 53.3401 38 28 45
31.5668 -2.44309 53.3245 34 26 47
30.5364 3.12466 53.2077 27 29 47
30.8923 4.28015 53.1929 40 49 59
9.1605 -28.607 52.9989 164 48 62
31.523 4.00075 52.7768 71 68 84
11.3897 -28.2333 52.6099 158 65 85
18.4063 -26.1395 52.6931 95 76 120
19.1365 -25.7401 52.6983 57 44 98
20.1972 -24.2586 52.6885 53 41 107
31.6808 -2.65189 52.4757 64 54 76
30.7649 2.69782 52.3568 29 27 53
30.7169 3.70236 52.3367 28 31 54
18.7441 -25.891 52.2761 48 38 90
21.9861 -20.6934 52.2315 41 36 85
31.7605 4.47188 51.9085 101 83 105
-3.324 -30.961 51.5521 104 111 155
-2.32423 -30.9448 51.5703 164 166 192
2.45698 -30.5726 51.6515 159 156 201
11.2738 -28.0384 51.7632 168 122 168
14.3314 -26.6266 51.791 202 188 234
18.0149 -26.2904 51.8525 56 40 89
31.6835 -2.65154 51.6213 100 90 97
-23.8054 -18.8261 50.4796 100 81 96
18.804 -25.9879 51.4427 39 37 83
30.8339 3.4888 51.048 27 32 51
14.7887 -26.5719 50.9589 200 195 224
30.3758 -9.10616 50.8822 122 132 152
31.7645 4.47242 50.6131 94 87 97
-4.85568 -30.9357 50.2441 69 74 104
-3.32002 -30.9604 50.2754 170 168 188
-2.85141 -30.9034 50.2835 175 170 184
31.7792 -4.61586 50.3858 114 102 120
31.7334 -3.63494 50.3628 97 84 107
-23.3079 -19.5577 49.1765 96 89 100
-2.44485 -30.7485 49.8628 171 169 201
31.9113 -3.0686 49.9268 48 38 60
31.5887 3.89493 49.7592 54 58 74
-3.31737 -30.9601 49.4243 167 172 190
2.18487 -30.9203 49.5387 31 25 58
14.5133 -26.918 49.7022 72 74 138
19.9779 -23.8661 49.7442 198 194 224
22.5021 -20.7394 49.7228 46 35 83
23.7402 -19.544 49.7204 36 32 74
30.4352 -9.20787 49.615 117 131 143
31.8729 -6.56814 49.5824 69 61 89
31.4947 -4.97212 49.5365 42 35 63
32.0894 -2.50154 49.4903 28 27 50
32.2664 -1.93385 49.4805 28 27 49
31.8248 4.36572 49.3214 94 92 93
-23.6613 -19.8203 48.29 102 96 112
-2.03582 -30.5932 48.592 66 63 93
14.5744 -27.015 48.8666 49 37 105
21.2677 -21.9333 48.886 201 192 224
24.982 -18.3473 48.8776 31 34 74
31.729 -4.5114 48.6785 33 33 65
31.8275 4.36608 48.458 98 88 101
23.5193 -19.9909 48.4669 37 30 73
31.2118 -5.32808 48.262 35 36 69
31.6844 -3.52988 48.2263 65 60 76
31.8054 -2.8591 48.2118 57 44 61
31.0375 -5.89102 47.8472 33 32 68
31.389 -4.76402 47.8255 68 78 96
31.8723 -2.08224 47.7658 58 46 62
31.8202 3.46793 47.6181 66 66 71
-5.85186 -30.9506 47.2367 163 164 174
12.0978 -28.5646 47.592 196 188 208
13.4485 -27.5675 47.5966 69 57 103
15.9975 -26.9484 47.6395 46 36 97
16.2766 -26.6024 47.6367 46 37 98
24.5916 -18.497 47.6119 32 28 66
31.5203 -3.21677 47.3607 135 141 140
31.6508 -1.66274 47.3218 70 58 70
31.7163 -0.883179 47.3022 48 38 60
31.2874 1.74159 47.2212 31 30 50
31.9439 4.15229 47.1713 104 90 87
24.0859 -19.2936 47.2016 34 31 70
31.6788 -4.40683 46.9706 140 148 147
31.5884 2.99868 46.7633 42 47 55
13.4511 -27.5672 46.7572 81 68 115
24.5942 -18.4966 46.7714 32 29 66
26.3431 -16.4999 46.7574 97 107 136
30.8746 -5.58017 46.5582 34 45 80
31.0503 -5.01646 46.5465 70 88 117
31.3558 -2.9031 46.494 150 155 165
31.6728 0.109613 46.4163 39 27 53
31.2901 1.74195 46.3607 33 29 59
31.9925 3.14803 46.3379 80 76 76
-3.83916 -30.9178 46.0053 158 154 190
24.2576 -19.5904 46.3745 34 29 70
31.2547 -1.81143 46.0326 141 131 142
31.7034 2.78569 45.9104 49 53 60
-7.21823 -29.6283 45.4556 166 167 185
24.5968 -18.4963 45.9309 33 30 66
24.8793 -17.2996 45.9026 32 29 65
26.2898 -16.3997 45.9116 62 69 104
27.3055 -15.6499 45.9151 171 172 194
30.2883 -8.03266 45.7647 86 79 88
31.2092 -0.821167 45.5741 101 90 108
31.4611 1.42366 45.5139 32 31 64
31.1099 -5.11957 45.2732 46 48 83
31.1188 -4.24349 45.2469 87 89 116
31.0249 -2.27491 45.1848 144 150 164
30.3466 -8.13497 44.9206 83 71 80
30.9703 -2.16987 44.7523 121 127 150
31.4449 -0.355436 44.7086 67 55 75
31.7074 2.78623 44.6182 58 69 96
-7.47245 -29.2323 44.1512 162 155 180
-5.00374 -29.8938 44.2382 161 163 182
22.3476 -20.4408 44.6713 106 89 128
26.1816 -16.1991 44.6398 39 42 89
30.8256 -5.47571 44.4251 27 25 53
31.1125 -5.11921 44.4215 28 27 58
31.6892 1.00008 44.2435 31 33 67
-5.06627 -29.7951 43.8062 134 141 172
31.3916 -0.249619 43.8461 70 62 73
31.7101 2.78659 43.7568 66 77 100
-7.53443 -29.1329 43.2888 111 97 132
22.9714 -20.6852 43.8565 57 45 88
27.4833 -15.0983 43.7976 166 176 201
30.4061 -8.237 43.6528 94 82 100
30.8839 -5.57893 43.5785 28 25 53
31.1152 -5.11885 43.5698 26 25 51
-5.12747 -29.6963 42.9467 54 43 62
26.1295 -16.0985 43.3719 33 33 81
30.5821 -7.67685 43.2147 71 55 89
31.3943 -0.24926 42.9883 87 75 90
31.9472 3.25624 42.8862 108 116 133
-7.59641 -29.0335 42.4259 34 31 64
27.4859 -15.098 42.9555 168 183 202
29.4831 -10.9238 42.8699 48 62 95
31.3114 2.63791 42.4581 44 42 80
22.073 -20.7882 42.5749 122 101 132
28.0534 -14.3967 42.5264 170 157 174
29.4157 -12.5402 42.5014 27 34 73
30.6011 -5.93462 42.3056 39 33 63
31.2108 -1.7049 42.1758 89 98 104
-8.32778 -28.6931 41.5343 24 25 55
-5.18736 -29.5972 41.6595 29 28 51
21.1833 -23.4105 42.2217 209 204 240
29.8402 -8.94492 41.9644 167 163 175
31.7992 -0.0995115 41.7082 94 84 93
31.7828 3.57737 41.577 105 113 126
22.8102 -21.2294 41.7731 56 43 82
29.3628 -12.4387 41.6524 33 42 77
29.4871 -10.9233 41.6013 115 119 130
31.5021 -1.34529 41.3154 150 153 159
31.4278 2.42536 41.1768 59 50 75
31.9729 5.05507 41.098 139 126 112
-4.07696 -30.5236 40.8728 35 42 72
23.0941 -21.7215 41.3805 52 39 83
31.8019 -0.0991535 40.8506 138 133 148
31.7293 3.68466 40.7089 108 103 100
-5.46324 -29.949 40.3819 24 28 63
31.7279 -1.76485 40.4819 156 159 165
31.5989 2.10632 40.3327 116 109 118
22.7032 -21.8716 40.5361 68 53 94
29.8312 -10.6716 40.334 177 123 118
29.7899 -8.84186 40.2628 144 57 60
31.9667 4.15535 39.8358 140 113 117
-24.8357 -18.824 38.4744 101 99 117
-5.33272 -30.1455 39.5391 30 32 70
29.9654 -8.28221 39.8227 142 50 70
31.6845 -0.774763 39.5865 164 155 160
31.4893 2.31954 39.4602 158 141 143
31.1611 3.85708 39.39 159 135 141
31.9782 5.05579 39.3697 138 93 99
-23.6962 -18.9257 38.0716 93 79 87
-4.47816 -30.6779 39.1608 75 79 123
21.7513 -22.7159 39.7004 182 162 196
29.7228 -10.4677 39.4766 161 79 66
31.7319 -1.76431 39.1986 166 149 162
31.3407 4.43538 38.9413 152 101 105
-4.47683 -30.6777 38.7345 105 111 151
21.9162 -21.3323 39.2314 65 47 92
26.1426 -16.0968 39.161 36 41 88
30.3408 -4.53944 38.8362 152 66 70
30.4606 -3.86957 38.8133 152 67 72
31.9202 -0.309192 38.7187 157 110 112
-23.6934 -18.9253 37.1851 96 80 99
31.7345 -1.76395 38.3431 167 147 151
30.8264 4.5012 38.0573 135 60 70
21.9188 -21.332 38.392 51 39 79
26.255 -17.1454 38.3661 30 35 68
29.6501 -5.92129 38.0166 146 39 48
31.6801 -1.65881 37.9091 169 148 150
4.96968 -29.7422 37.7417 31 28 64
25.4102 -18.1926 37.9606 33 28 68
30.1771 -4.22683 37.5374 143 40 50
21.7011 -22.6169 37.5998 117 100 143
26.0874 -17.6935 37.5428 33 32 73
31.8041 -0.984081 37.0288 163 120 111
3.52412 -29.8127 36.8487 87 81 100
31.3957 -2.01729 36.6309 168 147 142
20.9157 -22.918 36.7468 198 191 223
25.1885 -18.6402 36.712 32 30 64
26.034 -17.5936 36.6963 35 43 80
27.9001 -14.9456 36.6468 167 72 77
30.0704 -4.01775 35.8165 142 39 48
31.3984 -2.01693 35.7754 175 151 153
3.12632 -29.9659 35.5717 180 181 208
20.4098 -22.8721 35.8877 206 196 231
21.7596 -21.8757 35.8923 81 64 106
27.7868 -15.596 35.83 156 59 67
30.2474 -3.45089 35.3702 132 50 73
-4.05838 -30.5211 34.9056 83 74 106
-3.37254 -30.0148 34.9079 32 29 58
4.45459 -29.6997 35.186 90 81 99
30.129 -4.12156 34.9692 138 43 50
30.6484 -3.30132 34.9509 134 84 96
31.5683 -2.33077 34.9406 179 149 151
3.99352 -29.7557 34.7484 162 155 181
11.7828 -27.9764 34.9603 162 161 197
23.0536 -19.9378 35.012 38 33 73
27.7894 -15.5957 34.9887 157 48 66
29.7237 -5.14824 34.5747 147 40 55
1.70685 -30.8733 34.2907 186 178 215
31.1065 -3.25608 34.1117 167 146 145
-4.30858 -30.1277 33.5982 56 49 81
0.0953885 -29.9125 33.7588 167 172 200
6.64354 -29.2247 33.98 35 29 65
28.7531 -6.01149 33.7253 148 43 52
30.133 -4.12102 33.6882 132 51 77
31.628 -2.43489 33.6654 176 134 127
1.64771 -30.7756 33.4371 175 180 201
31.0533 -3.15129 33.2502 172 156 155
19.9657 -22.9237 33.3558 183 82 98
20.8074 -21.8807 33.3379 203 149 181
30.1917 -4.22487 32.8416 125 63 89
31.6864 -2.53914 32.818 168 116 106
6.64749 -29.2242 32.7143 54 43 68
13.9352 -26.6731 32.8804 181 175 218
31.1676 -3.3597 32.4108 167 157 157
19.9684 -22.9234 32.5165 179 61 81
20.81 -21.8803 32.4981 179 74 108
31.1131 -3.25519 31.9762 150 133 122
31.401 -2.89704 31.9698 157 122 118
-30.2333 -8.37231 29.2819 102 61 54
6.37124 -29.5718 31.8768 161 164 187
29.3078 -8.78289 31.7577 172 166 182
-30.2319 -8.37212 28.8286 106 62 57
19.0157 -23.7687 31.6813 182 68 92
20.865 -21.137 31.622 176 58 78
22.1608 -20.0394 31.6191 188 83 110
3.84891 -30.2974 30.9647 35 30 57
9.78689 -27.9027 31.0895 51 36 55
11.7945 -27.9748 31.178 52 42 72
29.9522 -6.43533 30.8129 171 164 166
31.9156 -2.95628 30.713 60 77 55
-30.2291 -8.37174 27.9219 105 60 59
6.43569 -29.6685 30.619 180 177 199
10.1868 -27.7499 30.6771 68 69 115
19.241 -23.323 30.8281 177 53 79
22.7854 -20.2844 30.8178 173 53 71
11.7971 -27.9744 30.3375 119 127 173
30.815 -5.36609 29.9413 58 72 57
31.6208 -4.19185 29.9129 48 70 56
15.0043 -25.1846 29.9051 179 56 77
31.3997 -3.77541 29.4543 43 57 51
11.7406 -27.8767 29.489 199 173 194
13.0933 -26.8781 29.4936 199 105 114
25.491 -19.1329 29.6136 172 129 166
-30.1498 -8.48053 26.118 108 56 53
5.48375 -30.5163 28.9367 37 33 62
29.2658 -15.6445 29.1679 183 142 93
30.7633 -5.26197 28.6555 41 44 53
31.3375 -4.54837 28.6413 38 45 49
31.9777 -3.05969 28.5868 39 55 48
11.5064 -27.4866 28.6156 192 95 80
25.2123 -19.4806 28.7817 195 173 210
-29.5618 -8.53952 25.2417 109 59 59
30.5823 -6.69756 27.8772 48 45 49
31.5719 -4.08695 27.7733 36 45 47
-29.1201 -9.19511 24.8469 111 62 64
7.1838 -29.2637 27.6776 188 121 114
26.9607 -17.4891 27.9084 190 152 86
27.6362 -16.9904 27.9108 179 131 58
31.4714 -2.99957 27.2795 37 47 46
29.0803 -10.9651 27.2062 168 111 43
31.2781 -5.31919 26.9788 48 42 43
31.3984 -4.65151 26.9454 42 41 43
31.705 -2.53664 26.8362 39 50 46
10.4779 -27.4005 26.8791 172 53 62
-29.4768 -10.2761 23.5376 100 66 72
26.4086 -15.641 26.5123 177 130 60
31.1875 -3.35702 26.0059 54 51 42
31.5406 -2.22236 25.9549 41 50 42
31.681 0.223837 25.8155 44 57 41
7.74712 -28.5672 25.9758 167 46 60
24.9395 -18.9843 26.2223 196 164 114
31.7745 -1.7586 25.5105 52 50 39
24.9408 -18.9841 25.8025 187 143 89
26.1307 -15.1389 25.6256 175 135 71
31.2834 -5.31848 25.2761 153 80 47
31.1812 -4.23513 25.2051 133 74 47
31.3571 1.75093 24.8484 72 81 74
-30.4239 -9.67271 22.0987 104 85 91
-29.7659 -9.84012 22.1412 98 65 62
-4.98184 -29.0401 24.5382 154 101 120
1.45816 -29.6419 24.8905 40 34 72
25.9013 -17.29 25.3252 180 134 73
31.2747 -0.8124 24.5721 100 53 39
24.9434 -18.9838 24.9629 183 124 69
25.6798 -16.0406 24.8159 178 134 81
27.0427 -13.3298 24.7143 178 146 90
31.4526 -5.62861 24.4524 154 83 39
31.2003 2.96574 23.9043 155 142 147
-30.7897 -9.12621 21.1407 105 84 98
30.7082 -0.645253 23.676 146 71 41
-6.5884 -28.9123 23.166 151 142 160
1.98887 -29.6829 23.6472 172 161 188
5.4995 -30.5142 23.877 194 102 101
6.796 -29.4152 23.8725 163 48 51
25.456 -16.4906 23.9904 180 141 84
27.0453 -13.3294 23.8694 179 152 103
-6.11373 -28.8557 22.7579 170 150 174
26.027 -14.082 23.4434 181 156 113
30.5424 -0.328421 22.7891 152 72 48
31.0354 3.28681 22.5818 151 113 122
-7.05944 -28.9685 22.2883 118 122 142
-5.51132 -28.9969 22.3697 177 148 166
-4.97518 -29.0392 22.3999 167 118 138
1.86789 -29.4869 22.7804 193 133 126
30.6165 1.34711 22.2548 145 64 50
27.1054 -13.43 22.6115 181 168 124
30.2638 0.200393 21.8813 153 73 47
30.4085 3.56577 21.6681 134 69 59
26.0309 -14.0815 22.176 182 166 130
30.6192 1.34746 21.3941 149 62 50
30.3307 0.985955 20.9726 151 68 48
30.298 3.78043 20.784 137 60 59
23.9407 -19.7303 21.6011 181 128 64
30.2192 1.19844 20.522 150 69 42
2.30981 -28.5902 20.6224 164 45 54
24.8428 -18.7838 21.1652 183 136 78
25.9203 -14.7348 20.947 186 164 136
26.5433 -14.1326 20.9394 187 175 159
30.2441 3.88798 19.9094 138 60 59
21.4123 -22.0201 20.7819 213 191 180
23.4926 -19.7814 20.7406 184 123 56
30.4555 1.66707 19.6416 148 62 45
30.2954 2.88262 19.1176 146 56 45
21.0774 -22.2689 19.9417 216 194 190
26.6595 -14.3336 19.6932 191 170 138
30.4018 1.77375 18.7697 151 62 47
30.4826 4.35993 18.5928 131 63 71
0.41949 -27.9699 18.7752 164 72 89
3.681 -27.5811 18.9293 167 46 57
23.8336 -18.6864 19.4219 184 126 71
27.1124 -14.2842 19.2928 190 168 128
30.2981 2.88298 18.2546 147 57 45
26.1517 -15.1361 18.8778 186 156 109
30.4287 4.46769 17.7171 135 60 68
-1.38773 -28.2916 17.8444 190 176 194
1.7905 -28.5468 18.0429 171 109 118
30.2365 2.09372 17.4449 151 61 49
1.26389 -28.5042 17.5849 188 169 190
2.59877 -28.2386 17.6418 170 107 127
4.61312 -27.47 17.701 166 50 58
30.3587 2.77671 16.9711 148 57 46
30.3747 4.57549 16.8411 137 59 65
31.7006 4.80855 16.8999 166 125 116
-1.98037 -28.1497 16.9468 187 160 172
26.495 -14.8851 17.6138 183 149 88
27.9683 -13.2292 17.5771 182 147 78
1.67049 -28.3497 16.7469 195 185 205
2.47787 -28.0417 16.771 199 180 202
3.00466 -28.0844 16.8048 193 171 193
4.43189 -27.1745 16.8203 169 100 120
24.7993 -16.9881 17.2493 192 150 88
30.3774 4.57585 15.976 138 59 63
-5.89976 -29.1495 15.9382 78 67 86
26.6687 -14.3323 16.7391 180 139 74
27.6314 -13.4795 16.7318 179 142 69
30.3062 2.88406 15.6656 147 56 44
2.01499 -28.097 15.8983 200 183 211
4.3118 -26.9772 15.9496 193 178 202
26.8975 -13.88 16.2964 178 134 59
29.6699 2.26499 15.2431 152 61 46
1.02178 -28.1098 15.4151 197 164 183
5.21545 -26.0232 15.5062 192 178 191
29.9051 2.73493 14.7899 152 57 45
30.4381 4.46895 14.6898 137 58 54
3.47454 -28.0281 15.1307 201 184 207
16.7027 -25.5062 15.7315 177 107 163
29.8511 2.84214 13.915 151 58 46
20.3037 -22.5685 14.8828 223 182 187
21.3696 -21.078 14.8316 187 98 61
22.3269 -20.2305 14.8239 186 105 58
30.5636 5.15674 13.3462 139 76 79
15.6243 -25.32 14.3917 213 203 232
16.3585 -24.9189 14.4053 215 205 234
30.8653 6.42696 12.8319 161 124 112
13.4212 -26.5243 13.9305 215 200 234
15.6839 -25.4177 13.983 216 203 236
30.1045 5.11539 12.4551 136 57 66
30.4124 7.29389 12.3015 162 125 110
6.04113 -28.142 13.1785 183 95 113
9.72257 -27.7001 13.373 210 191 192
14.6585 -25.3295 13.4917 217 205 230
16.303 -24.8206 13.5537 217 202 238
18.2816 -24.0636 13.6168 214 201 223
20.4738 -22.0233 13.5905 215 153 148
30.6011 8.78991 11.7592 138 101 84
8.28623 -27.7675 12.8666 196 120 100
9.66412 -27.6023 12.9399 205 154 156
10.8006 -27.0468 12.9667 217 178 212
21.0368 -21.3269 13.1498 190 93 66
30.1072 5.11575 11.589 136 60 70
29.9592 8.16416 11.334 166 126 113
13.4839 -26.6214 12.6808 222 163 174
14.8951 -25.7207 12.6971 228 175 178
15.6296 -25.3193 12.7111 228 170 179
16.3531 -24.0801 12.6563 225 162 180
30.6038 8.79027 10.8888 139 99 80
15.7359 -24.6777 12.2451 209 111 95
21.0394 -21.3265 12.3094 189 95 69
30.2881 5.69691 10.6867 142 86 88
29.9619 8.16452 10.4637 165 127 107
13.1483 -26.8707 11.839 183 64 79
14.5466 -25.1328 11.7855 189 71 80
15.5156 -25.1232 11.8471 190 71 80
15.8425 -24.0348 11.7783 187 68 79
24.8164 -16.9858 11.7739 185 101 52
30.1449 2.30982 10.5237 151 53 41
29.8417 7.47116 10.078 161 121 117
-8.94582 -27.5853 10.045 140 34 44
1.68745 -29.9293 10.9298 69 48 90
8.81122 -27.8094 11.2154 158 76 70
11.2637 -26.9914 11.3064 171 68 66
30.2908 5.69727 9.81998 144 93 96
30.6078 8.79082 9.58308 139 97 78
6.53431 -28.9226 10.7381 144 103 119
9.67069 -27.6014 10.8322 165 112 108
29.8444 7.47152 9.20856 167 129 121
29.966 8.16507 9.15833 166 124 109
-7.88193 -28.4246 9.32476 139 34 40
8.87383 -27.9067 10.3839 175 153 212
14.5635 -25.9694 10.5947 180 134 204
17.2104 -23.8744 10.5918 179 59 74
18.9589 -22.7247 10.6097 211 194 218
30.051 4.32184 9.0536 141 57 56
30.0815 7.94744 8.74913 164 123 106
30.7244 8.57308 8.73857 139 93 79
-7.0826 -28.8639 8.98564 141 35 42
6.53694 -28.9223 9.89368 157 158 176
7.33701 -28.616 9.92064 137 114 134
15.8008 -24.7748 10.1546 187 112 118
30.457 4.47148 8.63513 135 72 76
30.4084 5.482 8.54582 151 107 101
17.5512 -23.6244 9.75229 177 58 71
18.8464 -22.5273 9.74462 208 175 221
30.1439 1.41599 8.44394 152 50 46
30.5314 6.17146 8.06162 171 134 123
9.79543 -27.796 9.17093 54 54 109
15.4068 -24.9262 9.3002 93 82 114
30.8249 6.53724 7.6161 162 114 104
7.06184 -28.9635 8.66603 124 111 125
15.8047 -24.7743 8.89332 157 107 120
17.4381 -23.4275 8.88662 178 55 69
18.7337 -22.3298 8.87876 204 161 200
30.3397 3.78602 7.38925 140 67 61
30.6873 4.04265 7.39044 144 91 91
30.5825 5.15927 7.28604 166 125 119
31.1751 6.79498 7.18364 142 89 73
31.4674 7.1609 7.17156 137 89 73
30.975 9.9651 6.89383 149 127 105
6.5422 -28.9216 8.20489 86 72 96
30.0915 1.52279 7.13886 152 52 45
30.3976 3.67903 6.97044 140 70 72
30.8276 6.53761 6.74879 156 110 99
-3.98441 -28.92 7.05911 150 39 48
6.48294 -28.8238 7.7699 65 44 69
29.6261 0.586811 6.75886 155 51 49
30.6418 5.05196 6.43372 170 131 125
31.1778 6.79534 6.31634 141 84 71
31.0347 9.85595 6.03579 146 127 100
15.3536 -24.8274 7.6053 174 126 160
17.2681 -23.1317 7.58668 178 56 69
18.7953 -22.4279 7.62966 182 111 133
30.8303 6.53797 5.8815 159 98 89
29.6853 0.481182 5.91163 154 52 46
30.6214 8.79263 5.23084 136 89 79
30.7439 9.48814 5.17695 140 108 98
8.88565 -27.9052 6.58833 66 51 70
15.9278 -24.9695 6.81701 188 113 130
17.3287 -23.2297 6.75803 179 55 66
18.7403 -22.3289 6.77563 170 84 107
30.7452 9.48832 4.74132 138 110 92
15.4173 -24.9248 5.93595 189 144 138
18.3467 -22.4798 5.92007 179 59 75
31.27 3.87168 4.4224 172 128 111
30.6994 10.5146 3.77255 151 132 108
-0.376573 -29.0177 4.76238 158 40 52
24.7796 -16.8832 5.44299 179 64 58
31.0279 2.50463 4.09957 163 127 136
11.7407 -26.9341 5.01658 106 103 118
30.0946 0.631567 3.77551 150 57 55
31.4884 2.54749 3.69777 178 143 133
30.4736 10.9545 2.84257 146 130 103
5.57083 -28.9337 4.33504 165 49 50
16.9387 -23.3804 4.63986 178 55 62
29.1846 9.69775 2.42994 136 72 58
3.415 -28.6676 3.72969 167 45 55
24.7836 -16.8827 4.17918 181 56 56
31.6033 2.33482 2.86461 172 135 114
16.4865 -23.4331 3.76983 179 56 66
10.7726 -26.9448 2.84011 173 53 62
12.3656 -26.3353 2.90011 180 54 65
20.0483 -21.2292 2.98085 176 63 77
23.0361 -18.0334 2.89573 202 142 162
31.261 2.07966 1.57182 172 133 106
13.0005 -26.574 2.5497 180 55 69
23.6577 -16.5821 2.3802 177 77 85
31.0757 0.61365 1.26943 173 157 151
31.1408 1.39906 1.19817 177 146 129
23.6022 -16.4817 1.94413 184 107 114
24.7345 -15.0767 1.89245 178 54 63
31.2453 0.296366 0.883444 178 155 150
31.2545 1.18697 0.797209 176 133 123
32.1817 2.16584 0.341428 140 57 52
20.6796 -21.4727 0.949638 183 54 70
22.9858 -17.9328 0.774612 212 195 218
21.9699 -18.6836 0.349675 192 103 133
23.6643 -16.5812 0.27014 208 196 210
20.8394 -19.2353 -0.104258 182 55 67
31.1731 4.29283 86.2658 119 72 66
31.3204 3.42193 85.8076 87 64 63
31.2509 4.88686 85.8538 81 71 75
30.6625 2.8985 84.9504 56 53 49
31.2524 3.51864 84.9562 46 46 47
5.49355 -29.6582 83.6723 154 42 48
30.5209 3.08863 84.1027 48 69 46
5.57712 -29.7406 82.8194 157 43 48
32.255 -5.20191 82.9892 66 67 53
31.2635 2.84258 82.7984 49 76 57
5.87479 -29.43 81.9735 150 65 49
31.9716 -5.50337 81.7189 60 78 57
31.6194 -3.03715 81.3635 65 82 71
31.6216 -2.36407 81.3803 61 80 64
31.6238 -1.68983 81.397 58 80 63
29.283 -10.8184 80.7866 160 88 96
31.8322 -5.31932 80.8806 65 88 101
31.9817 -4.16234 80.9064 82 103 110
31.5515 -2.27092 80.9592 74 91 73
31.7012 -1.10475 80.9852 65 85 71
5.82746 -29.9875 80.2632 187 180 208
31.8514 -0.611061 80.5696 82 96 80
7.93261 -29.7816 79.8133 189 180 195
26.1092 -17.4469 79.8365 164 96 78
28.8535 -12.9207 79.9019 172 140 58
31.2622 -3.24848 80.0916 108 111 100
24.3781 -19.268 79.4001 207 192 228
31.4764 -5.5305 79.6128 75 92 98
31.4866 -2.17469 79.6887 113 126 102
31.7089 -1.10007 79.71 123 129 104
31.859 0.0692078 79.7344 128 138 119
1.91453 -30.7375 79.0263 179 166 179
24.3032 -18.5283 78.9982 208 194 233
31.5555 -4.28108 79.2166 95 111 106
31.1948 -3.15409 79.2463 83 98 82
2.74213 -30.3755 78.5975 180 173 188
3.58879 -30.6658 78.5805 181 175 187
27.1255 -15.3981 78.61 179 149 104
31.2607 -6.59122 78.7472 65 81 61
31.3368 -5.34638 78.773 71 91 87
31.4918 -2.17158 78.8395 117 118 101
31.6414 -1.00498 78.8627 100 112 97
31.7914 0.164717 78.886 116 122 121
1.99914 -30.8199 78.1714 185 173 193
30.025 -9.05268 78.2882 156 65 67
31.4882 -4.18709 78.3726 111 120 112
31.1273 -3.05961 78.4006 122 124 113
2.53317 -30.7664 77.7404 185 164 184
23.1274 -16.4711 77.7947 210 189 226
31.2658 -6.58812 77.9026 64 75 67
31.4867 -5.52429 77.9218 68 83 82
31.497 -2.16846 77.9902 79 89 92
30.9757 -7.55821 77.4642 89 69 52
31.3483 -4.00199 77.5308 86 95 118
31.2777 -3.23914 77.5467 89 98 125
31.8647 -1.95087 77.5659 80 94 106
32.1626 -0.291991 77.5956 78 91 107
1.93005 -30.7281 76.4701 182 114 111
31.2102 -3.14475 76.7009 102 114 134
31.5047 -2.16379 76.7164 112 115 133
31.9449 -1.36488 76.7271 96 102 112
32.0952 -0.19667 76.7475 85 92 107
31.9524 -0.0106064 76.3268 79 82 92
31.8049 -1.17801 75.8819 81 78 69
31.955 -0.00904529 75.9012 74 73 60
31.6467 -5.69586 75.3811 84 95 82
31.0709 -3.6299 75.421 81 92 75
31.5124 -2.15912 75.4425 92 100 81
29.1737 -9.95682 74.9065 176 111 108
30.9953 -6.8817 74.5215 93 70 74
31.0778 -2.95423 74.5836 112 120 107
31.8852 -1.26521 74.605 112 105 120
31.8902 -0.58766 74.1905 92 100 118
31.8904 -1.2621 73.7552 63 91 88
31.4573 -1.38313 72.9056 56 83 59
-4.99956 -30.1656 72.244 166 105 86
28.6802 -9.98528 72.3782 188 179 187
31.6074 -0.889563 72.4864 56 82 64
30.7935 -6.60199 71.9919 141 53 61
30.873 -4.6851 71.5922 89 57 48
30.8797 -4.0111 70.7523 106 63 59
29.7115 -7.9104 70.2891 190 185 194
30.8864 -3.33594 69.911 151 102 110
30.7406 -4.49559 69.4759 154 67 71
30.9794 4.0437 69.5548 135 84 89
31.1893 -1.00117 69.0828 120 37 63
31.2773 4.35569 69.1294 150 78 89
30.7458 -4.49248 68.6283 162 91 85
30.8941 -3.33127 68.638 148 51 53
31.1156 -2.25869 68.647 149 45 57
31.1937 -0.322508 68.6628 143 42 62
31.2028 3.08117 68.6905 143 55 68
31.1927 -1.67399 68.2267 146 49 54
30.972 -3.41947 67.7888 150 58 57
31.126 -0.227112 67.8116 146 47 57
31.3564 3.58144 67.8389 136 44 47
31.2688 -2.43719 67.3718 149 48 61
31.1979 -1.67087 67.3766 153 53 70
31.132 1.13284 67.3944 143 41 56
31.2041 -0.316259 66.9594 144 40 54
31.3616 3.58458 66.983 131 55 41
-8.08093 -28.7326 66.212 149 84 86
30.9797 -3.4148 66.5161 172 106 105
31.2758 -1.75959 66.5262 145 41 48
31.139 1.81693 66.5447 145 51 78
31.5127 4.08365 66.5583 133 69 36
31.2916 2.99717 66.1239 142 56 55
31.7238 -0.279922 65.6849 143 43 53
31.3674 2.90532 65.6963 140 47 47
31.6643 3.89935 65.7021 137 54 49
31.429 -1.93842 65.2514 146 47 62
31.4336 -1.26158 64.8287 142 39 53
31.7289 -0.276799 64.8337 143 45 53
31.5942 3.31173 64.8439 137 41 51
26.7797 -15.473 63.9138 163 165 193
31.4388 -1.25847 63.9784 141 48 55
31.7341 -0.273677 63.9826 144 47 66
31.6725 3.22139 63.989 134 42 44
25.8518 -17.6006 62.6442 121 102 142
31.5193 -1.34571 62.7035 150 77 74
31.8146 -0.361194 62.7066 150 60 56
-9.5443 -30.284 61.4336 152 94 98
25.7109 -17.4232 61.8039 73 58 102
31.9677 -0.540857 61.4321 146 52 50
25.4999 -17.8112 60.963 94 72 109
26.2917 -16.1584 60.9693 38 30 78
29.623 -7.02969 60.9914 177 165 165
-9.78663 -30.0178 60.1306 119 71 75
31.9754 0.139474 60.5799 144 49 53
-0.582983 -28.4795 59.8136 59 75 56
31.6936 2.55255 60.1431 141 49 53
-11.3372 -29.017 59.2389 126 110 118
25.8696 -17.5898 59.7089 56 43 85
27.3097 -14.1047 59.7161 30 27 64
31.55 2.74062 59.7132 146 52 53
25.8747 -17.5867 58.8703 65 50 90
27.2453 -15.3257 58.88 31 28 65
31.5574 3.42719 58.8553 138 44 51
-2.82928 -29.8178 57.6412 104 100 124
30.973 2.81046 57.994 138 58 64
31.7111 3.92761 57.9993 135 55 47
26.5308 -16.4085 57.6156 36 29 75
31.991 -0.526816 57.6046 165 158 163
30.9038 3.58987 57.56 137 64 58
-1.20933 -29.6597 56.8092 166 123 126
17.8152 -27.3738 56.7033 158 48 65
26.395 -17.5366 56.7824 43 35 84
30.3015 -8.48916 56.7839 29 27 62
31.8436 -2.3653 56.7652 157 158 189
30.8326 2.31867 56.7118 159 165 177
30.7607 3.09561 56.7047 162 157 150
31.428 4.9938 56.7023 130 51 49
-1.12347 -29.7429 55.9544 167 126 127
14.5307 -28.6998 56.2349 85 45 55
25.9685 -18.9664 56.367 62 51 106
-20.4352 -23.3261 55.1026 108 107 134
19.8398 -25.2476 55.8862 167 76 102
31.9188 -3.12636 55.9245 80 63 83
31.9237 -1.7798 55.913 57 45 72
-20.3446 -23.4152 54.6618 106 107 138
21.211 -23.6439 55.4797 180 142 159
31.7062 -2.17748 55.4877 36 33 65
30.6924 1.82734 55.4308 35 39 74
30.7671 2.41666 55.4269 49 53 86
-19.3358 -23.8175 54.2429 104 100 136
-18.2464 -24.3102 54.2697 99 91 119
15.9213 -27.7335 54.994 161 49 64
16.4356 -27.6843 55.004 161 49 68
-20.076 -23.684 53.7836 104 108 142
-1.48904 -29.9608 54.2353 161 127 140
13.9489 -28.6587 54.543 157 47 57
14.9686 -27.9154 54.5566 162 51 63
31.4894 -3.24641 54.6451 34 28 61
31.2008 -2.20726 54.6284 33 29 58
31.2026 -1.53223 54.6214 31 27 58
30.8456 2.32651 54.5741 27 29 60
31.9916 -5.88942 54.2606 47 32 63
-19.8077 -23.9524 52.9066 104 107 130
14.8983 -27.8274 53.714 160 52 65
31.426 -1.80458 53.779 30 27 57
30.9241 2.23645 53.7216 26 27 59
-20.6366 -23.7283 52.4425 105 110 139
-18.4529 -24.7136 52.5036 99 101 123
-17.1082 -25.4724 52.5431 85 84 104
31.9967 -5.88632 53.416 55 42 47
-19.1904 -24.5815 52.0434 104 108 129
24.5959 -16.6467 52.9577 80 72 124
31.706 -6.85704 52.9992 112 111 109
31.5765 -1.98489 52.9349 35 31 64
30.7135 4.57474 52.8324 44 49 69
-19.577 -24.8083 51.1532 103 113 139
31.1278 -8.12995 52.1586 183 186 203
30.7187 4.57788 51.9746 32 41 64
17.9656 -25.5934 51.658 46 36 84
32.3871 -1.64002 51.6759 32 27 56
31.1656 5.38944 51.5452 112 99 102
-19.2224 -25.1653 50.2834 102 112 143
32.1696 -2.0376 51.2518 48 32 55
-19.1325 -25.2537 49.8454 102 112 142
17.5319 -25.7236 50.8096 42 32 75
18.698 -25.1534 50.8313 46 36 76
31.9424 -5.11873 50.8688 169 176 206
31.5147 -2.5595 50.8183 130 124 159
30.653 4.67667 50.6845 29 37 71
31.0999 5.48846 50.2545 104 102 104
17.4621 -25.635 49.9668 42 32 73
18.7031 -25.1503 49.9926 67 68 119
18.9833 -24.2 49.9846 138 148 183
31.7375 -2.83068 49.9799 62 46 77
30.5846 4.77393 49.823 26 38 65
31.1432 -8.12067 49.6294 189 176 192
31.6587 -5.42039 49.5977 58 49 86
31.2521 5.30306 49.4034 103 103 105
30.8105 4.49488 48.9761 28 38 70
-3.68905 -30.0598 48.1734 135 125 142
18.9163 -24.1096 48.7218 196 185 213
27.9578 -14.7683 48.8146 95 80 118
32.0376 -2.51868 48.7104 33 29 56
31.4041 5.11784 48.5532 113 100 107
-3.43978 -30.3159 47.3263 103 96 116
26.157 -17.1557 47.9667 100 105 145
27.9629 -14.7652 47.9752 128 115 138
31.3392 4.5314 46.8477 91 87 105
-4.59482 -30.329 46.0011 153 147 167
31.1009 -3.34165 46.5767 165 179 188
31.6204 -1.95841 45.7148 144 130 133
31.3432 3.1659 45.5923 35 37 71
30.0791 -9.41632 45.4069 128 126 142
30.8162 -3.64438 45.301 118 126 146
30.6732 -3.4603 44.8676 75 85 120
31.3328 -2.26303 44.8624 157 164 174
31.4095 -1.00428 44.8358 91 79 93
31.6432 3.47897 44.7398 77 88 117
30.8905 -6.4094 44.0981 33 29 67
31.7146 1.34241 43.9387 29 29 58
31.7215 3.3886 43.8892 91 103 123
30.8192 -6.98456 43.6871 38 27 68
31.3406 -2.25836 43.5883 92 101 135
30.6835 -3.45407 43.1698 30 29 66
31.4179 -1.67384 43.1515 126 122 141
30.9786 -3.14498 42.7483 34 28 60
31.491 -2.43836 42.749 76 87 110
26.6955 -16.4405 42.5149 38 45 91
31.8829 4.57726 42.1529 141 140 153
-19.7748 -24.4987 40.5269 98 110 137
27.2788 -15.8295 41.6816 125 135 174
28.2904 -14.438 41.6826 162 147 175
27.4278 -15.3472 40.8346 171 173 202
29.9638 -7.89184 40.7218 181 142 160
31.7469 4.7714 40.4287 153 127 109
28.0078 -14.0816 40.4013 142 122 138
29.8951 -6.4665 40.2547 190 162 183
27.3601 -15.2564 39.9896 176 173 199
29.7515 -6.9521 39.84 170 99 125
2.58642 -29.8016 38.973 30 25 60
26.8629 -17.9084 39.6297 37 32 73
29.9755 -6.55218 38.991 160 54 67
