ply
format ascii 1.0
element vertex 1359
property float x
property float y
property float z
property uchar red
property uchar green
property uchar blue
end_header
-6.70817 23.1831 32.0035 87 46 24
-8.49576 23.898 31.929 97 49 24
-19.8586 23.3 31.3073 125 56 27
-20.9231 23.2897 31.2504 130 58 29
-23.5252 23.5965 31.1208 131 59 28
-25.6762 23.5766 31.0058 134 62 30
55.9498 23.9429 34.8946 150 69 42
54.1335 23.3254 34.7787 147 69 43
52.7671 24.6618 34.7443 139 63 39
38.4158 23.3885 33.9343 109 51 28
36.3846 24.3654 33.8536 106 46 22
35.1772 24.7385 33.7995 117 53 23
22.7929 23.9314 33.109 145 64 38
5.40435 23.8486 32.1704 133 63 36
-7.17133 23.4884 31.4827 100 49 20
-11.6033 23.2825 31.2381 107 52 19
-26.4621 23.7202 30.4509 138 64 34
-27.0827 23.9644 30.4246 138 62 33
-28.6343 24.2844 30.3505 142 62 35
-62.1783 19.3828 28.4006 138 65 38
60.7117 20.3989 34.5842 144 67 37
37.5771 23.9788 33.4305 114 53 28
6.10945 23.6804 31.7071 111 53 35
4.51137 24.4652 31.6435 128 62 35
-6.15606 23.4829 31.0329 120 56 27
-18.6726 23.3629 30.3474 143 63 33
-19.1332 23.6885 30.332 143 62 34
-20.7979 23.3425 30.231 143 61 35
-21.5717 24.0797 30.2108 140 60 34
-24.9302 23.3861 30.0072 138 57 35
-28.6528 24.8519 29.8481 142 65 36
-63.5765 18.0295 27.7417 138 62 38
47.4094 23.4528 33.4807 114 53 22
45.6623 24.5713 33.4183 117 53 26
37.4019 24.4223 32.9584 124 58 27
34.7012 25.5495 32.8437 145 65 34
23.4884 23.2055 32.1545 140 64 36
7.80487 23.522 31.2995 102 48 32
5.24045 23.7371 31.1647 103 45 25
-6.45714 23.3023 30.5066 128 61 32
-7.05196 23.5403 30.4811 124 58 30
-8.24346 24.0171 30.4298 131 63 31
-11.7754 23.1683 30.2094 139 66 37
-13.1267 23.5645 30.1469 137 65 39
-25.0959 23.2857 29.4786 125 55 35
-26.1814 23.8578 29.4361 129 57 29
-26.9549 24.0175 29.3983 135 61 30
61.4815 19.7844 33.6827 146 65 38
56.5025 24.2795 33.5435 144 66 41
54.4537 23.5115 33.4056 135 65 37
45.5287 24.4802 32.9377 133 59 30
38.8794 23.6565 32.5415 142 62 34
35.3936 24.8504 32.3839 148 65 34
23.1821 23.5786 31.6636 125 58 37
13.823 23.6447 31.1437 96 49 28
13.2274 24.43 31.1347 100 50 34
4.6258 24.516 30.6576 129 63 35
-7.94979 23.5978 29.928 128 60 34
-11.6559 23.8081 29.7278 135 58 36
-16.4233 22.8598 29.4327 120 55 36
-18.6982 23.3317 29.3204 113 53 35
-19.0088 23.7411 29.3157 106 51 32
-20.6728 23.3954 29.2122 102 52 32
-25.8809 23.429 28.9228 104 50 23
39.4046 23.4178 32.0885 136 67 40
24.4134 23.1858 31.2355 146 68 41
22.7444 23.8723 31.1629 115 52 33
18.2231 23.9868 30.9114 104 52 30
10.5769 23.9956 30.4803 103 45 23
7.17976 24.2834 30.2977 111 53 28
5.49373 23.8693 30.1896 110 47 24
-6.77121 23.1062 29.4738 124 56 31
-8.70412 23.7383 29.3846 120 56 37
-26.2003 23.2439 28.3821 111 50 20
-27.2881 23.8167 28.3386 133 62 32
-39.8535 22.2646 27.5812 132 59 32
60.0841 19.9594 32.6835 143 66 37
53.6746 23.5504 32.432 146 66 37
38.318 23.8518 31.5654 114 55 36
37.6166 24.5341 31.547 114 54 29
35.6216 24.9767 31.4473 144 66 35
35.2067 25.2801 31.4333 149 69 35
34.9178 25.661 31.4289 149 69 34
23.1579 23.549 30.6908 123 62 35
17.7814 24.2824 30.4073 108 56 27
13.7984 23.6148 30.1589 118 56 25
12.8226 23.6054 30.1029 121 57 27
12.9317 24.2396 30.1293 125 58 27
7.30553 24.3492 29.8118 136 64 34
5.04129 24.1699 29.6769 135 61 29
4.02109 24.7207 29.6362 147 67 32
-11.8279 23.6941 28.6993 97 53 29
-18.7238 23.3005 28.2933 121 57 28
-19.1844 23.6261 28.2774 119 54 25
-20.8493 23.2799 28.1714 123 55 27
-24.6688 22.9105 27.9417 134 60 30
-26.6801 23.5568 27.8475 139 64 33
-38.9094 22.7669 27.1246 115 57 31
39.8784 23.6998 31.1752 113 53 39
35.1948 25.2655 30.9554 147 69 32
25.075 23.0074 30.2987 148 69 38
24.2583 23.0768 30.2538 146 68 42
22.7201 23.8427 30.1898 125 59 35
18.0652 23.8772 29.9223 118 59 28
10.6889 24.0462 29.5021 138 67 33
9.70558 24.0373 29.4451 141 67 34
8.44456 23.8667 29.3669 143 68 33
3.84692 25.1837 29.1441 149 69 32
-6.36324 23.3235 28.4949 120 54 28
-8.43897 23.8729 28.3929 105 49 23
-14.2239 23.4926 28.0468 110 52 24
-26.84 22.8729 27.2989 143 65 35
-27.3077 23.2018 27.2826 144 66 35
-38.9226 22.7509 26.5978 120 56 33
-64.0888 20.7484 25.0812 168 149 133
52.135 23.6566 31.4144 122 56 32
51.3747 23.7242 31.3723 115 59 34
47.8776 23.1598 31.1497 112 54 34
39.3302 23.9093 30.6756 95 50 32
38.3807 24.4356 30.6375 98 50 30
22.4449 23.669 29.6827 143 64 34
17.4897 24.093 29.4075 142 63 33
13.3138 24.4503 29.1755 136 62 34
11.6574 24.0401 29.0655 140 66 36
5.27157 24.8604 28.7198 150 67 34
-18.7494 23.2693 27.2662 144 65 35
-19.3601 23.5109 27.2385 146 65 34
-27.9425 23.4303 26.7352 147 67 37
-64.2453 21.8673 24.566 179 173 164
37.831 24.6458 30.1371 119 50 25
25.8331 23.4537 29.3898 150 70 35
24.3649 23.1267 29.2923 149 70 36
23.5469 23.1963 29.2464 147 68 35
21.6111 23.7245 29.1497 146 67 32
20.1254 23.3964 29.0512 146 66 33
17.7737 23.6876 28.9222 136 62 37
8.71965 23.4413 28.3799 139 67 35
7.56854 23.9083 28.3276 149 70 37
7.13029 24.2231 28.3122 151 70 39
6.27656 24.2954 28.2642 149 68 37
4.40199 24.9183 28.1744 150 69 38
3.96152 25.2343 28.1589 151 70 39
-27.3272 22.5863 26.2253 142 69 38
-38.6304 22.8913 25.5688 131 62 40
57.978 23.5387 30.8258 159 82 59
38.3569 24.4067 29.6852 143 63 33
35.2482 25.8354 29.548 151 70 36
22.4206 23.6394 28.7091 148 67 36
11.0874 23.6878 28.0349 103 51 29
10.5153 23.9205 28.0087 109 53 28
8.13202 23.6596 27.8578 137 63 33
5.24679 24.8301 27.7252 148 67 36
-5.80708 23.0397 27.0057 149 68 37
-27.6482 22.4003 25.6819 134 61 36
-64.2724 21.8343 23.479 183 174 165
37.8073 24.6168 29.1843 150 66 35
26.4921 23.2755 28.4564 152 66 37
23.6538 23.2463 28.2844 150 66 36
18.0164 23.8177 27.9642 125 58 34
11.6466 23.4403 27.5673 107 45 23
7.81972 24.04 27.3572 148 69 39
6.80537 24.5887 27.3149 150 69 38
4.23784 24.8071 27.1676 147 70 34
-5.98112 23.5098 26.5073 147 68 38
61.4844 -17.1623 28.7012 144 134 33
38.5826 24.5327 28.7534 151 66 36
36.0906 24.6643 28.6062 153 67 36
32.0215 24.3983 28.3491 151 67 36
22.102 23.998 27.731 150 67 39
10.6273 23.9711 27.0312 138 59 29
7.5074 24.4204 26.8567 153 67 38
-6.87635 23.5672 25.951 147 65 36
-27.8282 22.2835 24.6302 109 54 25
-37.0807 22.5214 24.0749 134 58 36
44.7718 24.4969 28.6584 121 58 38
40.4279 24.0009 28.3736 126 56 32
39.8924 24.2247 28.3485 137 60 36
37.4083 24.355 28.2002 151 66 37
35.3234 24.1828 28.0658 152 68 38
27.4094 23.2558 27.546 152 68 36
26.468 23.2461 27.4878 152 69 37
23.3356 23.6044 27.3076 148 67 37
11.1869 23.7234 26.564 133 66 35
8.94527 23.543 26.4196 136 68 38
-7.32265 23.3039 25.4099 134 66 40
-28.0013 22.7672 24.1181 123 66 37
61.2699 -17.9318 27.6999 148 133 30
50.5865 23.1795 28.5024 155 66 36
40.168 23.8314 27.8777 120 56 30
38.5589 24.5038 27.8016 150 66 38
33.341 24.0732 27.4617 151 68 38
32.6698 24.2211 27.4252 151 67 37
23.3234 23.5896 26.8214 150 66 40
12.1806 23.163 26.1131 133 63 36
10.6027 23.9411 26.0427 121 59 37
8.3581 23.7612 25.8967 115 55 35
-7.49661 23.7746 24.9111 100 57 31
-27.8601 22.8365 23.6111 108 57 33
-31.4386 22.6325 23.3813 141 67 39
47.1051 23.7334 27.8361 124 58 28
39.9079 23.6618 27.3812 127 58 29
37.3845 24.3261 27.2467 148 69 40
35.5888 23.7725 27.1139 148 69 42
35.1735 24.0758 27.0987 146 70 42
34.7579 24.3792 27.0836 145 69 43
32.2404 24.5109 26.9302 148 68 40
22.2283 23.486 26.2639 139 68 49
11.0258 23.6127 25.5646 117 55 36
7.49436 23.8178 25.3501 117 55 33
7.19425 24.2135 25.3455 115 53 28
-6.17559 23.3658 24.4747 117 54 30
-28.3414 23.15 23.0741 116 51 27
-31.9231 22.9474 22.8417 144 67 38
-37.9134 22.0421 22.4325 121 53 29
-38.55 22.8815 22.4229 110 51 28
41.338 23.4329 26.9895 131 63 30
40.0202 23.725 26.9165 140 64 33
38.4105 24.3974 26.839 146 67 36
33.3171 24.044 26.5027 133 59 35
31.6832 24.7228 26.4239 147 67 37
28.7941 24.0792 26.2169 150 67 34
26.6915 23.3602 26.0571 152 67 36
23.0367 23.4012 25.8265 123 58 39
-1.65827 23.0718 24.2468 146 67 37
-2.24679 23.3082 24.2181 145 66 40
-4.71445 23.0407 24.0517 138 65 37
-6.78233 23.5883 23.9405 134 60 33
-26.9499 22.147 22.6074 108 58 27
-27.886 22.8049 22.5721 122 60 29
-32.2518 23.3478 22.3148 145 67 37
-38.7222 22.7793 21.8832 140 62 38
-60.9917 21.0754 20.4071 140 85 58
-63.8677 20.7789 20.2137 166 142 120
47.0816 23.7048 26.8946 135 68 34
37.3608 24.2971 26.2932 130 62 35
35.4389 23.6654 26.1465 130 62 36
34.4815 24.1942 26.1048 127 59 36
32.0891 24.4036 25.9591 139 64 36
22.8931 23.3069 25.3287 119 54 32
-5.75115 23.0149 23.4811 124 64 42
-7.08387 23.4077 23.4103 121 60 38
-28.5216 23.0334 22.0217 134 66 35
-63.7098 20.8519 19.6843 169 146 124
57.7218 23.8715 27.1205 153 71 42
46.5424 23.9122 26.398 137 64 37
41.4778 22.948 26.0337 126 63 37
38.5115 24.446 25.8979 106 55 32
31.9497 24.3108 25.4679 135 63 33
30.3461 24.4509 25.3693 148 70 37
28.8989 24.1286 25.2634 148 68 36
26.4076 23.1725 25.0661 147 67 36
23.0124 23.3716 24.8537 116 59 32
-1.68331 23.0412 23.2418 142 68 40
-2.69942 23.0308 23.1756 133 66 40
-4.73959 23.01 23.0427 103 55 35
-27.7578 22.8584 21.5462 126 61 33
-28.6945 23.5169 21.5104 141 66 37
-62.7103 20.7603 19.2036 152 111 91
57.7102 23.8574 26.6566 143 70 41
47.0581 23.6762 25.953 129 62 39
40.768 23.6131 25.5392 116 53 29
35.0366 23.4019 25.1562 114 55 30
34.7471 23.7835 25.1519 121 58 33
33.0273 23.8438 25.0417 125 54 27
31.3921 24.5227 24.9606 147 68 34
22.1798 23.4268 24.3163 123 62 34
9.44544 23.2196 23.4754 113 54 28
-6.51439 23.1392 22.4285 107 52 24
-7.39831 23.2116 22.3734 108 53 24
-24.6761 22.2085 21.2051 111 49 30
-25.1421 22.5364 21.1871 111 47 28
-26.3743 22.44 21.1029 116 49 27
-39.5584 22.2996 20.2352 135 63 37
-41.3167 22.5356 20.1292 121 60 33
-63.8942 21.3417 18.6069 174 158 139
41.167 23.2977 25.0798 120 57 31
39.9337 24.2011 25.0333 124 63 32
34.4824 23.6126 24.6505 131 62 34
33.0153 23.8293 24.5619 145 64 36
30.3221 24.4217 24.4069 150 69 36
28.8749 24.0993 24.2989 149 69 39
26.2535 23.0638 24.0858 148 69 39
22.1677 23.412 23.8293 134 60 37
-0.816659 22.3742 22.2712 146 71 36
-1.26237 22.6923 22.254 149 70 37
-1.70835 23.0107 22.2369 147 69 39
-7.8618 23.5171 21.85 131 60 35
-40.8491 22.779 19.6427 140 65 41
-59.7001 21.1126 18.3333 145 74 49
-61.0456 21.0096 18.2404 141 86 64
-62.3957 20.9062 18.1472 148 109 94
48.3296 23.3584 25.0865 113 53 32
40.3332 23.8854 24.5738 123 63 39
32.5861 24.119 24.0663 149 68 34
23.6638 23.1781 23.4345 123 60 38
21.5974 23.6264 23.3142 125 62 38
8.29604 23.0983 22.4064 117 60 33
-0.829173 22.3589 21.769 148 69 36
-25.9402 22.6634 20.1062 134 66 30
-28.2706 23.7241 19.9922 145 70 36
-29.6762 24.7126 19.9371 147 68 36
-39.9041 22.0946 19.1526 147 67 37
-41.1814 23.1839 19.1101 133 59 36
-60.404 20.1293 17.7087 147 72 50
56.6924 23.7307 25.1956 111 56 33
41.3907 23.424 24.1532 122 58 39
34.5849 23.6617 23.7043 113 53 29
32.1566 24.4088 23.5704 154 70 37
30.8101 24.7056 23.4914 152 68 37
22.0116 23.3028 22.8435 109 57 32
21.1586 23.9205 22.8105 114 59 31
-1.14541 22.7441 21.2621 148 69 36
-4.03634 22.227 21.047 141 71 42
-6.841 22.9276 20.8859 108 59 34
-27.8156 23.3791 19.4915 147 69 35
-40.5553 22.9197 18.6155 144 68 38
-61.2427 20.8874 17.1421 138 89 75
60.5852 20.1794 24.8548 158 142 30
43.1843 23.4282 23.8021 121 57 35
40.4335 23.934 23.6354 118 54 37
35.6566 23.1968 23.2812 114 53 28
33.614 24.1765 23.1815 146 69 37
31.8544 24.777 23.086 152 69 36
23.8025 22.6813 22.4547 123 58 31
23.6396 23.1485 22.4623 117 55 29
20.6176 23.5875 22.2745 121 60 37
7.88195 22.266 21.3559 115 54 31
5.43252 23.1189 21.2235 128 57 28
-0.71238 22.4107 20.7774 148 67 36
-5.08969 22.7682 20.4942 126 57 30
-7.88328 22.9016 20.3097 114 59 32
-23.813 22.6543 19.2169 122 52 27
-24.4303 22.8972 19.1847 133 61 32
-25.3539 22.9711 19.1249 141 65 35
-26.1262 23.1298 19.0787 146 69 37
-59.7405 21.0633 16.711 139 73 57
58.2134 23.0473 24.346 158 83 50
56.4345 23.5507 24.2444 143 67 42
45.3767 23.1331 23.4686 120 63 38
44.0719 23.4231 23.3909 110 56 30
41.7376 23.6276 23.239 114 58 31
34.4347 23.5544 22.7349 137 61 33
32.26 24.4578 22.6223 153 69 39
20.3406 23.4132 21.7621 127 57 39
13.1443 23.6577 21.2782 111 55 33
7.13065 22.9616 20.8373 111 57 27
-1.00864 22.2307 20.2492 150 69 38
-3.91821 22.279 20.0515 147 71 37
-4.50992 22.5158 20.0205 144 68 34
-5.98334 22.8248 19.9319 144 66 38
-13.0714 22.2589 19.4226 105 54 32
-25.8329 23.2835 18.5885 147 69 37
-27.3737 23.0186 18.472 147 69 37
-28.1495 23.1778 18.4253 147 69 37
-41.8625 22.7901 17.4686 130 62 40
-61.4399 20.7652 16.0431 139 84 82
-61.5974 21.2865 16.0534 150 107 117
58.8657 -24.6194 21.9724 170 157 127
56.9386 23.318 23.8064 149 71 45
44.1826 23.4859 22.9298 123 59 29
42.0958 23.8453 22.8 121 63 34
35.5067 23.0895 22.3126 123 64 35
33.5901 24.1474 22.2233 146 69 38
31.8305 24.7478 22.1261 152 69 40
23.7782 22.6518 21.4823 145 67 37
23.6154 23.119 21.4902 140 65 37
22.1381 22.7903 21.3744 133 62 36
19.7681 23.6281 21.2447 119 55 34
-0.879229 22.2978 19.7601 151 70 39
-4.52249 22.5005 19.516 149 67 36
-6.14006 22.7267 19.4133 145 66 36
-13.5401 22.5665 18.8942 111 51 23
-28.945 23.9055 17.8822 148 70 39
51.0452 23.3916 22.9344 117 60 31
43.7625 23.7713 22.441 136 62 39
34.2843 23.4471 21.765 116 53 27
32.2361 24.4287 21.6626 150 70 36
25.9537 22.2714 21.1339 152 68 36
20.4488 23.4633 20.7986 116 60 31
12.1954 22.5086 20.182 137 65 35
12.1691 23.0637 20.2032 139 65 36
1.99536 22.2344 19.4576 143 67 38
-1.19546 22.683 19.2532 150 69 38
-6.89141 22.8661 18.8627 139 70 40
-12.0529 22.2395 18.4758 121 59 27
-14.3046 22.7072 18.3379 136 65 34
-14.6135 23.1143 18.3332 138 65 36
-28.4781 22.3916 17.334 124 59 36
-29.7309 23.4654 17.291 144 69 37
-40.9291 22.0888 16.4511 102 56 32
56.1649 23.3565 22.8272 144 70 41
52.6727 23.3195 22.5793 115 59 34
45.8288 23.3986 22.0998 120 60 37
35.1044 22.8255 21.3192 121 57 32
33.6025 23.5798 21.245 136 61 32
31.8066 24.7186 21.1661 152 70 36
24.4408 22.4737 20.5522 151 69 39
23.754 22.6222 20.51 149 69 39
22.9034 23.2386 20.4759 142 65 36
21.5553 22.9897 20.3703 133 61 32
5.98499 22.2646 19.2415 126 63 40
3.70954 22.0782 19.0731 124 59 33
1.53954 22.5362 18.9393 147 71 42
-0.33725 22.5964 18.8094 148 67 36
-5.57154 22.4587 18.4344 149 66 33
-12.6678 22.4632 17.934 129 65 38
-29.584 22.9497 16.7611 135 62 35
-31.9233 22.8424 16.5916 147 68 35
-61.1276 21.5043 14.4752 155 125 121
-63.3177 21.5668 14.3233 177 164 147
59.3182 -24.2972 20.5628 165 157 120
60.4112 20.0324 22.5247 161 141 35
55.3555 23.9321 22.3305 129 61 40
44.2697 23.52 21.5239 113 60 33
43.8614 23.8197 21.5076 114 64 37
34.297 22.8792 20.7867 134 63 33
33.5906 23.5652 20.7656 144 66 35
32.2122 24.3995 20.7029 152 70 35
25.9295 22.2419 20.164 152 69 36
23.579 23.0747 20.0321 150 69 40
20.5569 23.5133 19.8356 141 64 36
12.0347 22.3977 19.1815 135 63 41
11.8723 22.8722 19.1901 124 58 35
11.4374 23.1852 19.1725 117 57 35
-1.24024 23.2172 18.2714 149 69 38
-3.82525 22.3004 18.0484 147 69 37
-4.27339 22.6198 18.0301 148 70 36
-6.75519 22.3491 17.8419 149 70 36
-14.1954 23.3337 17.3541 125 59 40
-26.9514 22.0428 16.3912 108 59 32
-30.5273 22.4221 16.1528 136 64 33
-40.4759 21.7224 15.4148 134 63 34
-58.1295 21.2617 14.1386 113 64 41
45.5617 23.2157 21.1325 116 54 28
21.1347 22.7207 19.3567 134 68 43
11.7237 22.7764 18.6832 121 56 30
10.2813 23.6351 18.6165 116 51 31
1.3738 22.4238 17.9246 142 69 38
-0.362252 22.5659 17.806 149 71 41
-12.6932 22.4322 16.9146 110 50 31
-35.4039 22.1016 15.2691 132 67 43
-38.7334 21.472 15.0029 124 66 42
-63.1874 21.0117 13.2266 175 153 143
59.294 -24.3268 19.5904 167 160 124
56.9979 23.3234 21.4957 152 73 41
52.8014 22.8279 21.17 111 56 31
53.1132 23.5821 21.2254 110 57 31
43.5928 23.6366 20.5378 130 60 38
33.4398 23.4577 19.7943 138 67 34
32.1883 24.3703 19.7432 152 69 36
26.5557 22.6097 19.2585 154 69 39
25.7424 22.6785 19.2026 153 70 40
24.9274 22.7476 19.1465 148 68 39
23.9479 23.2835 19.0988 131 61 40
22.7355 23.1147 19.0036 123 57 38
11.2764 23.0744 18.1714 118 58 29
-0.536504 23.0328 17.3136 146 69 43
-1.12336 23.2687 17.2813 135 62 37
-2.44132 23.6593 17.2028 126 58 40
-13.0004 22.2495 16.3763 99 52 27
-14.2077 22.7287 16.3096 105 59 28
-14.3686 23.2192 16.3193 111 59 29
-30.7087 22.3049 15.0954 147 69 35
-31.8025 22.2932 15.0156 146 71 40
-35.2614 22.7615 14.7853 105 54 34
-39.0652 21.8761 14.4711 105 58 36
-40.0224 21.9503 14.405 106 59 35
-58.3249 21.1401 13.0434 131 67 45
-62.3603 20.8306 12.7375 163 128 130
55.3207 23.8897 20.935 125 60 35
52.4626 23.7115 20.7182 120 60 34
46.8804 22.3679 20.251 123 65 38
44.1529 22.8682 20.0736 117 56 35
34.9303 22.6889 19.3915 118 55 27
31.6312 24.5821 19.2335 153 70 38
26.2507 22.9811 18.7697 151 70 40
20.153 22.6805 18.3107 116 53 30
19.0307 23.1398 18.2488 116 51 28
11.5628 22.6655 17.682 127 62 34
8.31018 23.0287 17.4602 117 60 33
1.34885 22.3934 16.9233 128 64 35
-0.387254 22.5354 16.8026 143 72 40
-1.86549 23.4076 16.7329 126 60 35
-13.1741 22.7242 15.8761 117 58 31
-32.5996 22.4368 14.4432 143 68 40
-33.385 22.5966 14.3928 129 60 34
-59.5097 21.1099 12.4175 134 79 66
-60.1753 21.363 12.3799 145 100 92
59.1476 -24.4479 18.605 166 154 124
52.6592 22.723 20.2232 132 59 40
44.6718 22.6317 19.63 115 57 35
43.3238 23.4534 19.5671 109 53 29
42.3826 23.9763 19.521 119 60 33
33.4521 22.8893 18.814 140 67 35
32.2 23.8019 18.7622 149 69 36
26.0758 23.4317 18.2941 142 69 40
25.0014 23.3429 18.2109 132 67 40
24.7081 23.7296 18.2064 118 61 35
22.9741 23.2442 18.057 108 55 28
19.3142 22.7352 17.7644 124 60 32
10.6799 23.2767 17.1517 119 55 35
-0.561499 23.0023 16.3104 141 72 38
-2.03956 23.8747 16.2402 120 60 28
-14.2331 22.6977 15.2886 130 57 38
-31.0457 22.1022 14.0221 147 69 38
60.0895 -24.9629 18.1672 166 153 136
46.7355 22.2619 19.2958 117 53 29
45.8418 22.2512 19.2288 118 53 28
33.023 23.1788 18.3169 142 66 35
29.0103 23.5243 18.0339 150 69 37
26.1937 23.4961 17.8231 138 67 40
18.6069 22.8701 17.2305 125 61 39
8.83583 23.3228 16.524 115 52 29
7.84778 23.3129 16.45 117 53 27
4.89105 22.7231 16.2036 122 54 26
1.04199 22.1987 15.8936 133 59 30
-0.695646 22.3404 15.7707 146 69 37
-1.74842 23.4591 15.7427 133 67 34
-11.8337 21.7249 14.9145 127 66 38
-13.1995 22.6932 14.8564 120 56 35
-33.0949 22.1479 13.3518 144 69 40
-59.5366 21.077 11.3365 137 82 66
60.493 -25.2734 17.699 164 151 133
59.2455 -24.3859 17.6457 162 149 122
55.5673 23.4764 19.5437 137 64 39
52.7549 22.7711 19.3007 122 60 36
53.0666 23.5254 19.3583 115 58 33
45.0563 22.3036 18.7018 134 65 36
43.3409 22.8925 18.5998 138 65 35
41.8662 23.6383 18.523 143 68 39
32.176 23.7728 17.802 152 69 37
27.2858 23.0262 17.4012 144 65 38
25.9216 23.3231 17.3123 130 59 38
19.2898 22.7054 16.7866 124 60 37
10.8176 22.7717 16.1539 118 59 34
10.5186 23.1658 16.1494 117 56 29
9.80897 23.3176 16.103 118 57 30
-12.1545 22.1156 14.4004 116 61 37
60.0653 -24.9924 17.1953 162 151 132
57.9465 21.6954 19.1784 178 109 64
56.9865 22.7304 19.1532 157 75 39
44.9223 22.2117 18.2164 139 65 39
42.9199 23.1781 18.1093 128 60 36
33.507 23.4632 17.41 136 64 34
31.108 23.6707 17.238 152 69 38
28.7286 23.3373 17.0426 147 68 39
22.1484 22.722 16.5164 113 56 31
20.7972 22.4718 16.4027 114 55 30
18.7157 22.9204 16.2657 121 58 35
17.7526 22.9101 16.1924 115 53 31
17.4564 23.3006 16.1879 112 51 29
7.82306 23.2828 15.458 131 63 33
6.9707 23.354 15.3968 140 67 38
-1.91554 23.3465 14.724 142 68 39
-11.5656 21.8612 13.9255 126 56 35
-12.6223 22.4228 13.8713 125 58 34
-59.9022 20.8661 10.2218 146 86 80
54.9547 23.0677 18.5507 150 70 39
49.1615 23.2305 18.1162 134 64 38
44.38 22.4193 17.7136 135 60 34
43.3173 22.8638 17.6531 131 63 39
42.2525 23.3091 17.5925 113 53 31
41.4326 23.91 17.5578 113 56 34
40.6513 23.9788 17.5014 108 52 33
32.0247 23.6652 16.8285 151 69 39
27.7793 23.313 16.4881 138 66 41
26.1904 22.9075 16.3481 122 58 34
25.7674 23.2145 16.33 112 54 32
11.7739 22.7522 15.2406 126 57 36
10.9296 22.8226 15.1794 121 58 35
10.494 23.1358 15.1607 117 54 30
9.64727 23.2066 15.0994 114 52 27
8.93619 23.3586 15.0522 121 56 28
7.09653 23.42 14.9146 141 67 36
1.87068 22.0824 14.4537 151 68 37
-0.875019 22.2123 14.2502 149 68 37
-1.03673 22.6949 14.2603 149 68 37
-13.2376 22.6467 13.3269 135 58 37
-28.1331 21.3189 12.1285 112 57 30
-30.4714 21.7942 11.9721 141 69 38
57.9234 21.6672 18.2494 167 86 50
56.9634 22.7022 18.224 157 72 40
30.0247 23.5537 16.1907 152 70 40
28.9622 23.4656 16.1048 150 70 41
26.0155 23.3582 15.873 130 60 33
19.9473 22.5114 15.3663 114 54 32
17.7282 22.8803 15.2128 114 56 33
10.1827 23.5149 14.6619 117 52 25
-0.72567 21.7143 13.7379 151 69 36
-1.63684 22.9156 13.7241 146 70 42
-12.4865 21.9019 12.8416 123 62 37
-13.5452 22.4641 12.7865 118 56 31
-60.4379 20.5658 9.08863 147 89 72
59.9071 -25.1285 15.7237 166 161 134
58.6818 -23.0084 15.7291 146 131 38
53.3474 22.5714 17.4742 123 60 36
52.5893 22.6377 17.4185 119 58 36
49.9792 23.7383 17.2681 105 55 33
44.1114 22.2355 16.7415 112 54 26
43.2937 22.835 16.7065 124 63 31
42.1056 23.2028 16.6317 119 62 30
41.4089 23.8812 16.6098 124 63 32
32.0008 23.636 15.8681 152 69 37
18.0122 22.4749 14.7275 108 49 32
14.1094 22.985 14.4488 115 56 29
12.1576 22.9645 14.2964 114 57 26
9.46048 23.6519 14.1196 132 63 30
8.19932 23.4806 14.0137 138 63 31
-10.8412 21.0867 12.4227 110 52 32
-11.7359 21.1575 12.3566 115 57 34
-14.4573 22.5209 12.21 112 60 27
-27.5362 21.0439 11.1251 142 68 36
-28.0047 21.3729 11.1043 143 67 35
-38.374 21.5877 10.3098 118 57 38
-45.4325 21.9332 9.77846 119 62 32
54.5656 22.7965 17.1148 126 60 33
33.6222 22.9443 15.4833 149 68 37
31.8614 23.543 15.3741 152 68 35
29.0669 23.515 15.1541 152 68 38
28.5177 23.7421 15.122 152 68 38
26.2512 23.4869 14.9325 150 69 37
21.3081 22.1835 14.4833 143 67 41
20.4836 22.2524 14.4221 130 59 34
19.1255 22.0006 14.3038 117 52 28
17.8664 22.3797 14.2235 114 52 29
15.6357 22.7494 14.0666 128 59 31
7.77363 23.2225 13.4741 145 65 33
6.48259 23.6084 13.3915 148 68 36
5.07212 23.3551 13.2691 148 67 36
4.91024 23.8331 13.2793 149 68 37
-12.3649 21.9545 11.8377 125 59 29
-13.7181 22.3495 11.7507 120 59 26
-27.8635 21.4425 10.6005 144 67 34
-29.4197 21.7592 10.4939 148 69 37
-39.9809 21.8926 9.67399 121 56 31
-45.9292 22.2533 9.22584 135 64 34
-59.4598 20.4584 8.08127 150 82 59
-60.4649 20.5329 8.00619 149 92 76
58.6576 -23.0379 14.7574 145 132 39
53.2053 22.4664 16.5271 119 59 28
49.8359 23.6333 16.3177 122 58 34
43.0243 22.6512 15.7329 134 63 36
41.5486 23.397 15.6526 116 52 31
31.1759 23.6761 14.8478 154 69 39
28.2478 23.5699 14.6117 153 67 38
17.5579 22.7555 13.7291 128 62 32
11.2898 23.0051 13.2467 145 65 34
10.4447 23.0757 13.1834 147 66 33
6.33176 23.5122 12.8801 148 67 36
-11.3211 21.3779 11.3844 129 59 31
-29.4379 22.3292 10.0012 148 67 37
-45.459 21.9009 8.7167 145 66 39
-48.8712 21.8632 8.4457 147 67 41
55.4141 22.778 16.2525 148 70 39
54.4241 22.6918 16.1696 142 66 35
42.8895 22.5592 15.2458 124 62 37
40.5922 23.9067 15.1289 116 53 24
21.9748 22.0051 13.5555 151 67 37
20.7242 22.3828 13.4745 144 65 36
19.6331 22.2918 13.3832 138 64 33
16.8478 22.8907 13.191 130 61 33
15.7457 22.8 13.0989 131 63 36
8.62418 22.5639 12.521 147 68 37
7.47297 23.0301 12.4522 148 66 38
-11.3484 21.9356 10.902 129 66 41
-12.8595 22.8196 10.825 116 62 39
-26.4984 21.5945 9.68055 142 65 38
-34.7688 21.1603 9.00163 146 67 38
-46.2809 22.0467 8.12941 147 66 40
-57.4833 20.2772 7.15213 141 77 74
-60.8315 20.3214 6.88802 146 110 104
59.0265 -24.5957 13.742 164 157 116
56.6709 22.4793 15.8746 156 71 42
55.4025 22.7639 15.787 154 71 40
54.6489 22.8303 15.7298 153 70 37
52.7807 22.734 15.5753 149 71 37
52.3791 23.0301 15.5577 147 71 40
42.8777 22.5448 14.7721 116 60 37
41.1146 23.6688 14.6862 115 58 28
38.6779 23.2621 14.4708 124 60 30
37.2269 23.4769 14.3651 134 61 35
23.0471 22.0815 13.1595 152 67 38
19.3253 22.6667 12.89 146 66 39
17.5335 22.7257 12.7493 130 57 35
7.18436 22.8525 11.9258 148 68 41
4.59476 23.6253 11.7563 150 67 37
-0.504644 21.8029 11.2577 149 66 38
-11.8155 22.2424 10.3726 117 60 40
-27.2926 22.321 9.13571 148 68 35
-36.8379 21.204 8.3154 147 66 37
-40.1801 21.7579 8.07479 146 65 39
-40.6591 22.092 8.05286 147 67 41
-45.4854 21.8687 7.65494 147 66 41
-46.9412 22.28 7.55851 146 65 43
-49.8771 21.9058 7.3047 143 64 45
-60.8574 19.6941 6.31537 141 105 96
59.9685 -25.1106 13.3079 164 160 127
58.6971 -25.4575 13.1879 164 160 127
54.9915 23.0448 15.3039 155 70 38
41.9633 22.52 14.225 119 58 36
39.4518 23.1795 14.0549 117 58 32
16.6894 22.7806 12.1956 113 53 31
15.1828 22.4482 12.0573 115 58 33
14.6158 22.6791 12.023 119 59 34
-13.9299 22.7778 9.72115 114 55 36
-26.9982 22.4753 8.65007 147 67 33
-28.544 22.2082 8.51186 148 66 35
-34.166 21.4732 8.02094 148 66 37
-36.5345 21.3608 7.82396 148 66 36
-37.804 21.8535 7.7459 148 67 37
-61.3941 18.7964 5.68738 121 90 72
56.4128 22.2986 14.9181 154 72 41
55.4972 22.8118 14.8694 155 72 41
41.6646 22.8837 13.7463 128 58 36
39.0279 23.4665 13.5609 111 53 30
38.1167 23.4573 13.4862 110 52 30
37.3284 23.5258 13.4254 110 51 30
23.9732 22.0632 12.2641 153 68 38
21.2474 22.1094 12.0444 151 69 38
20.9524 22.4983 12.04 149 69 38
17.3754 22.6157 11.7545 119 56 33
14.171 22.9758 11.5116 120 59 31
8.99963 22.7623 11.0797 142 64 40
7.29778 22.9036 10.9482 140 63 42
4.56996 23.595 10.7608 148 66 37
-10.7859 21.6507 9.41226 118 59 30
-11.0935 22.0562 9.4076 123 63 36
-25.6176 22.058 8.22471 141 69 37
-35.5999 21.8625 7.40182 149 66 40
-45.6742 21.7492 6.57558 135 60 49
-46.8047 22.3348 6.51294 110 51 56
-59.5504 19.156 5.31497 96 87 62
-62.261 18.3294 5.05262 112 100 76
-62.5762 19.3757 5.07957 144 128 107
59.8223 -25.2319 12.3213 158 152 124
42.7597 21.8906 13.3132 106 53 31
42.5962 22.3463 13.323 107 54 30
41.2424 23.1699 13.2536 125 61 35
40.8318 23.4706 13.2352 124 59 32
18.4899 22.1409 11.3336 144 64 39
16.1282 22.4293 11.1544 130 57 33
-9.61487 21.731 9.00567 119 58 32
-11.5602 22.3629 8.87806 114 61 38
-25.9438 22.4552 7.702 147 66 37
59.9321 -25.1549 11.8501 153 149 122
51.4535 22.9635 13.6152 127 59 41
50.5286 23.4804 13.5651 117 54 37
41.5175 22.7773 12.7836 113 57 27
40.0373 23.5245 12.6994 125 60 27
25.0274 22.1246 11.3859 153 67 38
24.6032 22.432 11.3666 153 67 39
23.9171 22.5805 11.3174 153 67 40
17.2171 22.5056 10.7593 137 62 41
14.444 22.5537 10.5323 132 59 38
7.41115 22.9547 9.97101 103 52 30
3.24522 23.9526 9.67751 147 67 38
-9.91924 21.5486 8.46517 121 55 32
-10.8112 21.6197 8.39501 122 56 35
-13.5121 22.4082 8.21199 100 52 27
-25.1773 21.6986 7.21053 140 65 35
-26.5765 22.6828 7.14522 146 68 40
-26.8899 23.0961 7.14047 145 68 41
56.613 22.4087 13.5504 131 66 39
55.4624 22.7694 13.4732 119 61 38
52.4844 22.5099 13.2115 114 59 39
42.2028 22.0842 12.3322 122 56 34
38.4939 23.112 12.0762 136 63 30
25.1458 22.1895 10.9156 152 67 38
24.0359 22.6453 10.8466 147 66 40
16.3723 22.5603 10.2033 115 56 35
13.9991 22.8505 10.0204 114 56 33
-8.00843 21.4748 8.11442 129 62 32
-11.7467 22.8209 7.87242 125 57 36
-20.913 22.3123 7.08187 142 66 34
-25.8165 22.5086 6.68322 141 66 47
59.37 -24.9803 10.8437 146 142 117
51.3107 22.8585 12.6653 107 54 29
41.3703 22.6707 11.8204 117 55 34
26.4045 21.2536 10.489 153 68 39
25.4271 21.7879 10.4348 153 68 40
19.4447 21.5571 9.92016 117 54 36
18.1864 21.9356 9.83422 107 52 29
17.0588 22.3954 9.76351 105 50 28
9.36213 22.9452 9.14559 134 61 34
8.37555 22.9348 9.06217 133 60 32
-8.76345 21.6136 7.55323 125 64 31
-9.36142 21.8515 7.51543 127 64 31
-10.3979 21.8394 7.42771 129 64 30
-10.8515 22.1613 7.40642 138 69 36
-12.5073 22.9613 7.30909 147 70 61
-63.4862 18.8596 2.81192 168 136 123
-64.1154 20.9523 2.86836 168 150 136
56.1912 22.6749 12.6025 131 62 33
52.3421 22.4048 12.2624 127 61 32
42.0558 21.9775 11.3691 112 57 35
40.7002 22.8016 11.2978 109 55 30
38.0956 22.8492 11.0798 130 60 31
35.0206 23.7377 10.8664 152 69 39
25.4151 21.7731 9.94964 153 68 43
24.4041 22.8543 9.92105 127 58 35
16.482 22.6109 9.23756 123 53 31
15.2441 22.4392 9.12372 124 55 33
14.4072 22.5088 9.05656 125 56 34
13.704 22.6594 9.00496 125 56 34
9.21256 22.8491 8.63474 142 65 36
6.38232 22.899 8.39777 145 64 33
3.64904 23.5911 8.20287 148 67 38
2.92832 23.7445 8.14994 147 67 38
-7.29251 21.2899 7.15531 144 66 38
-11.479 22.9565 6.88875 149 74 61
-19.1241 22.7135 6.22875 120 71 61
-63.9434 21.6367 2.3778 170 152 134
59.296 -24.4391 9.89744 144 137 106
51.5262 22.9832 11.7578 134 65 38
50.3622 23.3469 11.6779 120 56 33
44.3785 21.7634 11.0832 111 52 33
43.7247 21.9076 11.0352 109 51 30
42.044 21.9631 10.8947 111 55 30
41.3466 22.6419 10.8714 110 56 30
37.4202 22.9807 10.5545 141 69 39
25.1095 22.1452 9.46 146 67 40
24.4906 23.4643 9.47738 120 59 31
18.162 21.9058 8.85466 126 59 30
14.1247 22.3326 8.533 127 57 36
13.1498 22.3215 8.44926 130 57 35
11.4654 22.4613 8.31302 140 64 39
10.2101 22.2882 8.19674 144 65 39
6.20799 23.3613 7.91247 148 65 36
4.35622 23.4229 7.7578 147 66 40
-9.5324 21.7372 6.48348 140 70 56
-10.2771 21.892 6.42818 145 77 57
-10.7306 22.2137 6.40662 147 82 61
-62.9859 19.7097 1.81623 176 147 132
60.8952 -25.0661 9.51712 142 138 118
57.7145 21.9924 11.7704 166 91 68
56.168 22.6467 11.6726 151 73 42
54.3079 22.5501 11.5076 147 69 37
35.5379 23.4837 9.94467 141 65 38
25.2604 21.6639 8.96376 154 69 38
24.3799 22.8248 8.95042 138 61 32
20.1025 21.3638 8.50439 137 65 33
19.674 21.6732 8.48418 137 64 35
16.7542 22.19 8.26099 126 60 35
12.2961 22.3763 7.8879 127 60 33
9.18789 22.819 7.64455 147 64 39
-7.46252 21.1758 6.12544 124 55 49
-8.34932 21.2464 6.05302 116 53 52
-9.83664 21.5549 5.94177 111 61 68
-11.6508 22.8424 5.85499 111 79 55
-62.8149 20.395 1.32671 172 146 130
59.3937 -24.3771 8.9411 143 131 111
59.8052 -11.4788 9.67552 110 105 23
51.2641 22.8016 10.7933 136 66 37
37.4345 22.4152 9.57499 134 61 40
36.8952 22.6393 9.54044 134 63 40
24.4664 23.4349 8.50749 146 65 34
18.004 21.7956 7.85918 145 65 38
13.8296 22.1412 7.51649 113 53 28
11.3043 22.3503 7.30919 137 63 34
10.4591 22.4203 7.23979 142 65 37
-10.4486 21.7776 5.39484 94 58 69
-11.1949 21.9325 5.33863 101 70 79
-62.6845 19.2437 0.735096 170 138 113
61.0632 -24.3433 8.60463 135 135 113
60.2866 19.2334 10.9189 162 143 31
57.6445 22.4865 10.8663 157 76 47
56.1448 22.6184 10.7427 156 71 40
53.8562 21.6905 10.4924 154 70 39
53.6925 22.1394 10.5026 153 70 39
50.3708 22.7774 10.2478 141 64 35
40.8162 22.2874 9.38768 117 57 39
35.2251 23.8356 8.98467 145 69 42
25.2038 22.1806 8.02015 153 69 38
19.5168 21.5632 7.49039 151 66 37
17.9918 21.7807 7.36928 147 65 37
16.8637 22.2405 7.29603 137 61 35
15.8959 22.2294 7.211 131 56 31
14.2504 21.8145 7.04479 131 57 32
12.1355 22.2654 6.885 141 61 35
10.1478 22.7995 6.74082 143 59 38
9.6867 23.6687 6.74812 138 57 42
-7.61614 20.4905 5.06525 91 54 39
-9.84652 20.9518 4.89593 102 63 54
-10.7536 21.5952 4.85199 112 75 68
51.0016 22.6199 9.82777 144 69 43
37.536 22.4644 8.6361 117 56 29
36.0801 22.6782 8.51998 124 60 31
35.6653 22.981 8.50023 125 56 28
25.2896 22.7909 7.57816 153 67 38
25.0945 23.8011 7.61672 152 67 40
17.1481 21.8346 6.81012 146 66 39
16.1524 22.3755 6.75245 142 64 37
11.2797 22.3203 6.3213 142 62 43
61.039 -24.3727 7.63522 137 136 114
60.26 -24.3513 7.56746 138 136 117
56.2392 22.6663 9.82745 151 69 44
53.432 21.9578 9.53959 137 63 40
50.3475 22.7489 9.31063 120 59 39
49.5839 22.8157 9.24677 117 59 40
39.924 21.7123 8.33048 114 54 32
38.6007 22.0025 8.22951 118 53 29
18.6639 21.6019 6.44282 150 65 39
14.2259 21.7846 6.06021 144 65 42
10.3967 22.9313 5.78512 96 52 43
59.5891 -24.2533 7.02988 139 131 119
60.3681 19.2679 9.54178 163 145 34
38.464 21.9097 7.73748 123 56 32
35.3894 22.7955 7.51312 151 68 36
16.2905 21.8738 5.7589 139 66 40
12.6689 21.989 5.44254 128 62 50
12.2347 22.3014 5.42135 121 63 56
11.2551 22.2902 5.33341 111 60 58
59.4552 -24.3594 6.52819 136 130 116
51.5772 21.3031 8.40572 118 56 30
51.7275 22.5107 8.48759 123 61 33
50.7273 22.4237 8.39285 120 56 31
49.9642 22.4901 8.3281 117 55 30
40.8084 21.6948 7.46106 118 56 36
39.7759 21.6051 7.36329 115 56 36
37.2877 21.7272 7.14679 136 64 39
36.2076 22.1753 7.07518 152 71 40
13.335 22.3783 5.03314 113 75 52
53.8714 22.2216 8.19901 128 61 34
41.3315 21.4578 7.02151 121 58 39
38.3153 21.8025 6.76847 119 53 28
35.2395 22.6881 6.5409 149 68 38
12.9159 22.1209 4.48997 123 96 68
54.3333 22.5132 7.79319 144 66 37
50.0609 22.5384 7.40559 124 62 38
40.9482 21.2089 6.49921 116 60 37
39.6278 21.498 6.39561 116 55 33
37.5146 21.855 6.22373 141 65 44
36.8496 22.0005 6.17156 148 66 44
35.0645 23.1331 6.07422 145 65 43
56.9316 22.5297 7.56823 152 69 41
48.0363 22.3494 6.74203 119 61 42
38.2915 21.7735 5.81497 130 63 44
52.5595 22.4642 6.69816 144 66 41
49.557 22.2023 6.40558 126 63 37
40.6371 21.559 5.5442 134 59 38
39.604 21.469 5.44354 131 61 42
37.3655 21.7476 5.25313 131 72 69
36.5746 21.8146 5.18403 127 73 71
41.7787 21.7122 5.18602 130 64 41
56.264 22.6294 6.12427 150 72 43
56.1234 22.525 5.17905 95 51 50
58.745 21.4279 2.59158 170 139 105
58.5582 21.8455 1.67669 172 132 100
59.2236 21.1686 1.23836 170 135 102
59.3972 21.8284 0.837771 174 135 105
19.8723 22.8114 69.6572 199 121 108
17.4935 23.9658 69.1427 204 148 94
-11.6647 24.6777 68.9259 193 123 59
-12.1623 24.9201 68.9207 191 114 61
17.4791 24.5905 68.6486 185 111 65
28.3455 23.1433 68.2576 167 79 38
27.9925 23.476 68.2528 167 81 40
20.6588 23.4736 68.1913 168 80 41
19.1244 24.0738 68.1752 174 89 45
-10.2877 25.1342 67.9229 172 80 41
-15.7365 24.5935 67.8801 163 75 38
-27.8437 24.658 67.7782 152 70 37
-43.7775 24.6408 67.6446 159 74 41
29.6071 22.9661 67.785 161 74 38
28.4494 23.2274 67.7734 162 75 37
24.598 24.9838 67.7306 162 74 38
20.2933 23.792 67.6978 165 77 41
19.2316 24.1583 67.6865 168 80 43
-6.05677 24.7134 67.4578 161 77 43
-9.16206 25.3976 67.4267 160 76 38
-11.5654 24.7297 67.4084 159 76 39
-13.2071 24.6893 67.3939 156 75 40
-14.7454 24.0892 67.383 157 76 41
-20.2071 24.8768 67.3304 150 73 41
-28.636 24.6729 67.256 145 71 42
-29.1473 24.9198 67.2503 146 71 43
-29.659 25.1668 67.2445 148 73 42
-44.3116 24.8734 67.1149 151 69 42
57.9686 25.2021 67.5611 176 83 50
26.4595 24.0372 67.2666 162 74 39
17.9193 24.9456 67.1817 160 75 39
16.3841 24.9069 67.1673 159 73 39
14.4908 23.9183 67.1534 158 72 38
13.2989 24.1847 67.141 157 73 36
12.5827 24.2158 67.134 157 74 37
-5.08142 24.2144 66.9662 156 73 40
-8.4375 24.6878 66.9324 145 70 41
-8.80468 25.0339 66.9275 148 71 40
-15.6258 24.6635 66.8642 141 68 39
-16.7361 25.71 66.8493 145 71 41
-27.7282 24.7289 66.749 126 66 41
-44.7034 25.2149 66.5857 132 65 39
41.0129 24.2144 66.9271 146 74 46
26.3246 24.5547 66.7782 160 73 40
24.4545 25.4845 66.7561 156 74 41
20.151 24.2964 66.7171 154 75 39
11.1375 24.2609 66.6266 151 72 36
-13.3564 24.5487 66.3793 132 63 41
-14.5049 24.2648 66.3687 128 63 41
-29.5429 25.2377 66.2141 121 60 32
-33.101 25.0499 66.179 151 68 36
-42.4337 24.9868 66.0853 128 62 36
-43.3818 24.9119 66.0761 122 56 31
-45.238 25.4477 66.0555 121 60 35
47.8903 24.0958 66.5235 160 75 40
46.4579 24.0569 66.5085 154 77 46
45.0205 24.018 66.4933 138 82 60
44.5677 24.2453 66.4878 124 82 64
29.1133 23.1469 66.3271 163 75 41
25.4948 25.103 66.2829 150 74 43
18.1344 25.1144 66.2048 131 65 39
16.7178 25.1775 66.1896 131 66 39
13.9947 24.1194 66.1638 135 68 34
12.8019 24.3861 66.1504 136 67 33
10.6485 24.48 66.1272 134 65 34
9.80817 24.4088 66.1185 134 66 35
7.39803 24.2972 66.0933 128 60 33
6.91572 24.5346 66.0875 128 62 33
5.21856 24.3915 66.0699 131 64 35
0.20893 24.0627 66.0177 144 69 37
-4.35666 24.1477 65.969 138 65 35
-15.5151 24.7335 65.8489 119 50 26
-32.9734 25.1392 65.6624 151 69 36
-54.7315 24.7862 65.4326 126 57 28
-55.8531 24.6 65.4213 125 55 26
47.0063 23.9122 66.041 157 77 43
41.1026 24.2801 65.9742 124 84 49
38.6242 24.5996 65.9457 158 73 38
26.4196 24.6216 65.8094 137 62 35
25.0178 25.3185 65.7921 127 58 32
23.0395 25.5138 65.7695 120 61 37
18.0078 24.9959 65.7146 114 55 31
12.4336 24.707 65.653 120 56 29
5.93651 24.3427 65.5813 122 61 32
4.23516 24.1991 65.5627 119 59 31
-0.777551 24.5237 65.5059 154 71 38
-6.33548 25.0926 65.4425 112 49 24
-13.7652 24.1974 65.3617 117 50 28
-14.5247 24.2294 65.3531 116 52 30
-28.1333 25.0285 65.1993 126 59 31
-29.2909 25.4153 65.1854 133 60 33
-30.2111 25.342 65.1753 143 66 37
-31.9203 25.302 65.1563 152 70 37
-33.4982 25.3691 65.1386 151 69 36
-40.3247 24.6332 65.0641 125 62 32
-43.5442 24.7668 65.0278 124 60 32
-44.0678 25.0176 65.0214 118 59 30
-45.2584 25.4111 65.0071 120 60 30
-54.8888 24.6577 64.9014 130 65 31
48.2439 23.1174 65.5832 160 74 40
44.5492 24.2121 65.5379 143 127 95
42.4359 24.2033 65.5132 83 84 50
40.5292 24.3927 65.4905 129 90 55
39.5291 24.1253 65.4792 139 77 41
29.2074 23.2139 65.3599 163 75 41
24.5406 25.5342 65.301 120 59 33
17.9983 24.9788 65.2253 112 55 27
16.6988 25.1433 65.2098 118 57 30
15.9889 25.175 65.2014 118 55 28
14.5685 24.5957 65.1858 124 57 29
13.8548 24.627 65.1774 132 63 37
11.7071 24.7213 65.152 121 54 30
9.30855 24.6109 65.1241 128 61 32
8.46576 24.5398 65.1144 124 58 30
7.25742 24.1597 65.1009 118 55 26
2.7634 24.2445 65.048 121 55 28
-6.83819 25.316 64.9336 128 54 23
-13.775 24.1797 64.8543 135 57 27
-15.5349 24.698 64.8327 135 56 25
-46.2222 25.3182 64.4719 138 63 38
61.0607 -22.8965 65.3224 115 132 147
43.3353 23.7311 65.0487 120 103 70
29.198 23.197 64.8758 164 76 38
26.4007 24.5877 64.8398 134 62 32
25.1132 25.3852 64.823 130 61 30
23.3654 25.7817 64.8011 122 59 32
17.046 24.79 64.7247 122 59 25
4.21579 24.1644 64.5679 133 64 31
2.26765 24.4657 64.5436 134 62 27
-0.557352 24.0417 64.5095 153 70 35
-2.90087 24.032 64.4807 149 72 35
-5.60957 25.0252 64.4462 144 67 35
-14.5445 24.1939 64.3375 146 67 33
-16.176 24.8182 64.3167 146 68 33
-21.3017 24.5905 64.2541 151 70 36
-28.7998 25.1325 64.1614 146 69 36
-29.3109 25.3794 64.1548 146 71 36
-31.1534 25.2325 64.1324 153 69 36
-46.9011 25.4427 63.9388 129 62 39
-54.7625 24.7307 63.8431 125 57 40
58.2107 -18.7308 64.7898 112 52 32
40.0545 24.5879 64.5303 143 87 43
39.1625 24.42 64.519 151 75 33
24.6361 25.6008 64.3318 143 65 32
18.3356 24.6088 64.2516 141 63 30
16.6797 25.1091 64.23 142 64 28
15.9698 25.1408 64.2209 144 66 29
14.9044 24.8672 64.2074 147 67 31
9.65049 24.884 64.1399 146 67 29
8.80869 24.8132 64.1292 147 68 29
7.11668 24.022 64.1079 147 68 28
3.59844 24.2818 64.0626 150 68 31
1.27732 24.2727 64.0328 150 69 30
-4.63549 24.5266 63.9568 139 66 39
-6.85778 25.2809 63.9278 147 68 34
-13.9247 24.0387 63.8379 142 68 37
-15.5547 24.6626 63.8166 138 64 32
-21.95 24.7114 63.7345 140 65 37
-28.6741 25.2213 63.6479 130 61 32
-29.6962 25.7151 63.6345 142 66 34
-44.7647 25.1051 63.4415 105 54 33
-45.289 25.3563 63.4346 109 55 32
47.6595 23.1957 64.1551 156 74 38
46.2249 23.1552 64.1359 149 82 46
44.4144 24.0637 64.1116 141 135 102
42.9702 24.0245 64.0923 61 53 25
41.2821 24.4116 64.0697 116 114 76
26.4956 24.6545 63.8717 154 70 36
25.0943 25.3513 63.8529 152 70 37
23.4613 25.8483 63.831 151 69 39
19.1493 24.662 63.7733 151 72 41
16.5526 24.9905 63.7385 150 71 37
7.34977 24.2108 63.6153 152 73 39
3.10341 24.5027 63.5585 156 74 36
1.15174 24.8048 63.5323 157 71 35
-14.3042 24.3694 63.3254 131 61 40
-16.0652 24.8882 63.3018 129 60 35
-16.6968 25.0263 63.2934 132 63 39
-17.1981 25.2699 63.2866 135 64 39
-19.2544 24.9133 63.2591 137 64 39
-20.419 24.6283 63.2435 140 62 41
-27.9024 25.17 63.1433 120 56 35
-30.7635 25.5172 63.105 146 67 34
-31.4127 25.6578 63.0963 152 70 35
-44.9175 24.9782 62.9155 95 47 24
-46.9216 25.4061 62.8887 106 53 27
41.381 24.494 63.5946 123 123 82
39.0141 24.9128 63.5618 152 74 39
24.6172 25.5669 63.3615 134 64 36
18.3165 24.5747 63.273 136 65 37
17.7259 24.7074 63.2649 133 65 37
15.8329 25.0049 63.2386 145 71 43
14.8852 24.8329 63.2253 142 66 39
11.5489 25.1952 63.179 129 61 37
9.87175 25.0543 63.1555 129 64 39
4.67647 24.5253 63.0828 133 63 38
2.48499 24.6203 63.0523 152 71 35
-2.30388 24.5 62.9854 140 64 40
-6.13127 25.2133 62.9325 113 58 35
-13.6848 24.2143 62.8266 114 57 38
-14.8138 24.5947 62.811 119 57 41
-17.972 25.2851 62.7674 106 52 30
-19.2643 24.8955 62.7492 110 54 30
-20.2966 24.7165 62.7347 116 55 35
-28.6941 25.1853 62.6178 108 48 26
-29.8525 25.5724 62.6019 132 62 31
-31.4228 25.6398 62.58 150 70 35
-33.65 25.8483 62.5491 151 68 34
-45.4521 25.2111 62.3842 99 51 22
-53.6748 24.8611 62.2693 114 50 25
-54.4999 24.8951 62.2578 114 51 25
58.1819 -18.7824 63.3119 113 53 33
46.0998 23.0231 63.185 148 80 42
44.3958 24.0305 63.1614 141 128 105
26.4767 24.6207 62.9023 157 74 41
25.1895 25.4179 62.8846 126 54 27
19.0136 24.5265 62.794 135 65 36
16.5335 24.9563 62.7585 132 61 37
13.211 24.6746 62.71 121 57 27
9.38231 25.2737 62.6552 118 56 32
3.32978 24.6745 62.5667 138 63 30
-9.40429 24.4568 62.3818 102 51 27
-15.1934 24.9254 62.2984 112 48 30
-16.7166 24.9908 62.2764 97 45 23
-30.647 25.5881 62.0751 143 65 29
-32.3571 25.5485 62.0503 154 67 34
-43.8898 24.4397 61.8818 110 54 28
-44.9379 24.9416 61.8671 106 55 22
-47.7552 25.4035 61.8268 115 57 28
-53.6851 24.8426 61.7402 126 58 30
59.8967 -21.2848 62.8408 119 92 77
58.1723 -18.7996 62.8192 112 52 32
47.2074 22.7509 62.7266 158 72 41
41.1236 24.8865 62.6388 144 114 78
37.9721 25.2382 62.5919 161 73 37
34.2642 24.4664 62.5348 160 71 38
32.7859 24.4277 62.5124 160 73 41
24.5983 25.533 62.3911 107 53 28
23.9013 25.5647 62.3806 107 50 27
18.2974 24.5405 62.2945 114 56 30
17.5897 24.5717 62.2839 107 53 31
14.8661 24.7986 62.2433 120 58 33
12.7241 24.8932 62.2112 119 58 28
12.1271 25.0269 62.2024 126 60 32
11.5297 25.1608 62.1937 120 56 31
10.6919 25.0904 62.1809 115 52 28
0.148344 25.2305 62.0224 157 71 38
-3.7939 25.1849 61.963 100 49 25
-12.8172 24.2522 61.8255 116 59 29
-13.9442 24.6323 61.8092 115 52 26
-15.8338 25.0457 61.7815 113 49 23
-17.9918 25.2496 61.7494 112 53 18
-29.8726 25.5364 61.571 142 64 31
-32.7435 25.8852 61.5284 154 66 34
-37.6756 25.3032 61.4531 138 61 31
-45.4726 25.1745 61.3355 129 59 28
-46.2835 25.2084 61.3233 133 61 31
33.794 24.6798 62.0477 159 71 39
25.1707 25.3841 61.9147 117 48 25
23.3086 25.68 61.8863 108 44 25
20.2885 24.3289 61.836 117 55 31
18.1709 24.4218 61.8032 113 52 29
16.0398 25.1569 61.7716 125 60 33
10.0831 25.2073 61.6787 119 53 27
0.386534 25.4198 61.5279 158 70 35
-5.54193 25.0241 61.4344 112 53 24
-9.42395 24.4216 61.3724 116 52 23
-14.4533 24.8575 61.2949 129 64 31
-16.7364 24.9553 61.2595 123 62 27
-18.767 25.2648 61.2285 128 65 28
-20.6983 25.0135 61.1978 134 65 30
-24.56 25.1785 61.1379 134 59 30
-28.7242 25.1314 61.0727 144 64 32
-30.5307 25.6588 61.0458 149 68 36
-36.7893 24.6791 60.9458 149 68 37
-37.407 25.5003 60.938 147 67 36
-44.9583 24.905 60.8188 123 59 32
61.1872 23.0262 62.0053 126 58 33
41.2133 24.9521 61.688 136 94 54
40.8665 25.279 61.6834 135 76 41
38.9561 25.4706 61.6531 159 72 37
37.3864 25.3348 61.6273 160 72 36
36.4894 25.1675 61.6123 161 73 38
34.0066 24.8624 61.5713 158 70 39
33.1958 25.4222 61.5598 162 75 42
24.3505 25.2981 61.4164 119 52 26
17.6878 24.6391 61.3068 124 53 24
16.9792 24.6703 61.2954 121 51 20
15.3196 25.1715 61.2701 137 59 28
14.0155 24.6938 61.2476 128 53 21
13.1822 24.6231 61.2339 129 56 26
12.7049 24.8588 61.2269 133 62 32
11.5105 25.1264 61.2084 128 56 26
9.47376 25.3243 61.176 140 60 27
8.7528 25.3563 61.1645 137 57 24
7.90984 25.2859 61.1506 138 58 25
6.21874 25.1448 61.1229 138 59 26
5.13127 25.5173 61.1064 142 63 27
4.15895 25.3439 61.0901 149 66 29
3.42953 25.3762 61.0784 153 68 31
1.23458 25.4732 61.0432 157 68 34
-2.83281 24.67 60.9751 150 66 31
-3.68788 25.2538 60.963 144 64 31
-6.66302 25.3839 60.9153 142 63 29
-13.7046 24.8073 60.7998 135 61 30
-17.8804 25.3195 60.7338 136 63 32
-21.9832 25.2734 60.6673 149 66 35
-29.8927 25.5005 60.5401 151 66 35
-33.1759 25.5281 60.4871 150 68 37
-34.4809 25.81 60.4668 149 67 36
-45.6359 25.0291 60.2842 99 52 29
-47.1641 24.5181 60.258 99 53 32
-53.2773 25.1163 60.1609 136 63 34
62.0961 21.9523 61.5507 124 53 33
61.1781 23.0099 61.539 124 56 29
44.4659 24.063 61.2633 137 112 68
35.1392 24.5851 61.1091 161 73 38
32.9478 25.8347 61.0769 160 72 37
26.439 24.553 60.9635 156 72 37
24.2265 25.1806 60.9287 133 61 27
23.1748 25.5456 60.9124 131 59 28
17.0871 24.7549 60.8079 133 64 28
14.243 24.8806 60.7607 135 66 32
12.8143 24.9437 60.7371 137 67 37
11.0224 25.3453 60.7085 137 65 30
8.86372 25.4414 60.6728 149 66 29
5.24354 25.6026 60.6128 152 68 31
1.47178 25.6621 60.5499 159 68 37
-8.18267 24.7729 60.3854 154 68 36
-12.7174 24.3044 60.3079 140 65 36
-14.8425 25.1703 60.2754 139 65 37
-15.733 25.0978 60.2603 136 66 37
-16.6254 25.0253 60.2451 134 66 38
-18.6552 25.3348 60.2122 133 62 35
-22.6317 25.3947 60.1459 152 67 35
-23.6715 25.2158 60.1279 150 67 34
-26.5074 25.5615 60.0817 152 66 35
-27.5566 25.3821 60.0635 152 66 35
-28.6086 25.2022 60.0453 153 67 36
-30.0389 25.3757 60.022 151 66 32
-32.6719 25.2622 59.9776 151 67 36
-33.976 25.5438 59.9568 149 67 36
-47.9886 24.5332 59.7189 101 43 23
-48.9485 24.4574 59.7026 102 44 25
-51.9346 24.8108 59.6539 119 55 28
51.1534 24.4652 60.9057 156 70 36
43.8964 24.175 60.7791 131 112 71
35.2403 24.6679 60.6316 160 72 36
33.5102 25.687 60.6059 161 72 38
25.6096 25.101 60.467 157 70 35
18.3763 24.5738 60.3399 134 60 32
16.7209 25.074 60.3133 138 64 32
15.7721 25.5435 60.2988 137 68 37
10.2943 25.36 60.2035 144 66 32
9.69497 25.4943 60.1936 148 68 32
7.6514 25.6933 60.1592 154 68 32
6.92794 25.7257 60.1468 154 68 32
4.50648 25.6177 60.1045 156 70 34
3.29364 25.8883 60.0847 158 70 35
-6.6826 25.3489 59.9101 156 70 34
-12.7273 24.2867 59.8013 140 64 38
-13.5947 24.8771 59.7887 122 56 32
-14.8524 25.1526 59.7681 115 58 33
-17.6378 25.4948 59.7214 105 51 29
-22.1361 25.1318 59.6422 143 69 37
-25.6054 25.6163 59.5843 153 67 36
-34.4 25.2039 59.4306 150 65 34
-36.8197 24.6247 59.3864 149 66 36
-37.9953 25.015 59.3677 146 64 34
-44.0831 24.2395 59.2594 128 56 28
-45.1316 24.7414 59.2433 129 54 26
-52.0905 24.6828 59.1228 133 57 29
-53.2979 25.0794 59.1036 137 61 32
44.7684 24.3257 60.3204 130 73 36
41.8562 24.8717 60.2711 130 70 32
37.4877 24.7581 60.1926 159 74 39
36.0213 24.72 60.1663 159 73 38
34.8816 24.9804 60.1472 158 73 36
34.4216 25.2103 60.1401 159 72 36
25.7141 25.1846 59.9847 160 70 37
24.2076 25.1467 59.9576 157 69 36
23.5098 25.1781 59.9453 157 70 37
17.1854 24.8223 59.8309 133 60 34
16.3546 25.393 59.8188 128 61 33
11.1229 25.413 59.7256 130 59 34
4.13543 25.941 59.6034 158 70 36
-3.59165 25.3052 59.4627 158 71 33
-8.32971 24.6332 59.375 156 69 33
-9.07969 24.6654 59.3618 157 69 36
-11.852 24.3422 59.3108 146 61 34
-15.6224 25.1676 59.2475 107 42 18
-18.4121 25.5102 59.1993 107 44 21
-19.4413 25.3323 59.1801 106 46 20
-20.2087 25.3654 59.1666 115 50 21
-26.5274 25.5257 59.0547 154 65 37
-27.3063 25.5591 59.041 153 65 35
-28.6286 25.1663 59.0155 152 66 35
-29.4113 25.1996 59.0017 153 67 36
-33.2421 24.797 58.9315 149 64 33
-44.7599 24.3632 58.7241 129 66 37
-45.9524 24.7566 58.7047 127 64 35
-49.6417 24.5634 58.638 124 63 38
-52.9232 24.6981 58.5801 126 66 39
62.5092 21.6809 60.1583 123 55 32
62.0954 23.2238 60.1589 124 56 34
51.0305 24.3345 59.9613 156 71 36
44.3065 24.5364 59.8387 143 70 34
42.2783 25.2496 59.8052 145 66 32
40.699 25.7365 59.7787 155 71 35
