ply
format ascii 1.0
element vertex 1320
property float x
property float y
property float z
property uchar red
property uchar green
property uchar blue
end_header
11.7495 -28.9002 56.3838 178 94 54
14.042 -27.8146 56.4091 180 94 49
16.7816 -26.6629 56.4437 189 113 61
19.6605 -24.9666 56.4652 172 128 118
20.8893 -24.5719 56.4845 156 134 150
30.8375 -12.8154 56.3777 132 91 83
32.0275 -10.7107 56.3435 171 92 80
-7.13212 -30.4958 55.5207 49 41 33
-6.25297 -31.0066 55.5596 51 41 32
-4.4367 -31.3721 55.6184 63 50 23
-3.36467 -31.4217 55.6479 107 79 32
-2.09636 -31.7601 55.6916 146 97 46
-1.22908 -31.5208 55.7067 153 98 51
-0.231322 -31.474 55.7312 154 105 57
1.7576 -31.3808 55.7801 168 135 75
2.68385 -31.2386 55.7998 170 132 67
3.73774 -31.288 55.8288 169 119 58
4.92799 -30.7882 55.8442 169 104 49
5.84878 -30.6469 55.8638 174 111 52
6.76796 -30.5058 55.8833 173 105 53
7.5584 -30.1737 55.8935 173 96 51
8.53818 -30.1288 55.9176 170 96 50
9.72056 -29.6318 55.9328 176 99 51
10.5707 -29.3964 55.9476 175 91 47
11.6878 -28.8048 55.9582 178 87 51
12.3488 -28.283 55.9591 183 92 58
13.5886 -27.8838 55.9789 180 89 48
15.4026 -27.6082 56.0175 179 100 51
18.1616 -25.7186 56.0302 186 116 63
20.9784 -23.9272 56.0474 122 95 101
29.3597 -14.419 55.9678 83 70 58
31.3838 -12.0942 55.9476 151 70 38
31.9118 -10.5109 55.9118 161 72 43
-23.987 -21.8352 54.3664 107 107 122
-23.2694 -22.0721 54.393 109 98 103
-22.9428 -21.0108 54.3678 111 73 60
-5.30886 -31.6125 55.1754 49 44 31
8.93327 -29.9634 55.501 173 94 49
13.7135 -28.0758 55.5676 182 87 56
14.2909 -28.198 55.5868 184 93 57
15.5263 -27.7998 55.6069 181 100 56
16.5149 -27.0195 55.6082 189 110 67
17.5644 -26.3352 55.6142 182 110 60
18.5527 -25.555 55.6155 183 109 60
19.8704 -24.5148 55.6172 139 93 77
20.9792 -23.9275 55.6279 100 78 91
29.5153 -13.861 55.5327 64 54 49
30.4498 -12.978 55.5292 78 49 34
31.3263 -11.9949 55.5211 147 65 38
32.186 -10.1492 55.4849 159 69 44
32.5178 -9.88731 55.4853 159 69 44
-3.36305 -31.4224 54.7939 138 93 49
-2.29382 -31.472 54.8245 151 96 50
-1.35964 -31.329 54.8451 155 95 52
-0.22971 -31.4746 54.8805 157 101 53
1.69397 -31.2855 54.9264 166 123 59
2.6205 -31.1433 54.9468 171 126 59
3.61002 -31.0971 54.9721 171 117 54
4.33967 -30.668 54.9778 171 101 49
16.8451 -26.7597 55.1888 187 107 69
20.2006 -24.255 55.198 124 85 75
21.4296 -23.8607 55.2184 98 77 90
28.913 -14.4828 55.115 63 55 48
31.1763 -5.05014 54.8685 155 70 42
-24.2077 -21.5284 53.4631 104 107 119
5.78714 -30.5521 54.5903 171 85 43
6.70657 -30.4111 54.6109 176 88 46
7.75141 -30.4615 54.6414 172 83 43
8.66708 -30.3208 54.662 174 86 45
9.78594 -29.7283 54.6731 175 83 46
10.5731 -29.3973 54.6838 179 89 46
11.6277 -28.71 54.69 179 89 48
12.8684 -28.3105 54.7109 181 86 51
13.9009 -28.3634 54.7412 181 87 53
14.8073 -28.2252 54.7616 181 92 54
15.8574 -27.5403 54.7677 185 95 63
16.5164 -27.0201 54.7686 184 98 64
17.5049 -26.2398 54.7699 184 104 60
18.4327 -25.3633 54.7663 186 105 61
19.482 -24.6791 54.7725 170 105 66
20.5912 -24.0916 54.7836 122 84 86
21.5505 -24.0537 54.8087 99 76 91
28.7962 -14.2852 54.6836 61 52 43
29.7893 -13.5012 54.6849 63 50 41
30.7824 -12.7173 54.6862 90 46 20
31.4444 -12.1946 54.6871 146 65 31
31.9142 -10.5118 54.644 160 71 40
30.803 -6.08876 54.4663 157 69 39
31.0001 -4.74364 54.427 153 70 41
31.3752 -3.70202 54.4027 149 72 46
-16.9837 -26.2991 53.3838 110 65 43
-3.02628 -31.1584 53.9404 153 114 70
-1.35802 -31.3296 53.993 154 103 58
3.01992 -30.9771 54.104 172 113 58
9.12513 -30.2509 54.2508 175 82 47
16.7856 -26.6645 54.3443 185 100 62
17.7743 -25.884 54.3456 184 103 58
31.7181 -11.8341 54.2608 155 70 34
31.258 -3.4969 53.9652 150 85 51
-26.6214 -19.7108 52.4437 101 112 134
-25.5972 -20.3646 52.4955 101 110 127
-5.17155 -31.0585 53.4486 110 84 49
-4.5668 -31.1804 53.4701 129 96 54
-2.95879 -31.2553 53.5187 156 124 83
-0.0248597 -31.0196 53.5944 160 110 72
1.56591 -31.0945 53.6424 164 102 46
2.95584 -30.8814 53.6748 170 108 51
3.68642 -30.4518 53.6808 171 99 51
4.54569 -30.2146 53.6972 173 90 50
5.66053 -30.3612 53.7341 175 87 49
6.77196 -30.5074 53.7709 175 83 49
7.9434 -30.7486 53.8127 174 77 47
8.79512 -30.5124 53.8289 175 78 48
9.51976 -30.0856 53.8349 176 80 49
10.6375 -29.4936 53.8464 175 79 46
11.6293 -28.7107 53.8477 180 87 52
12.4775 -28.4761 53.8638 182 85 51
14.541 -28.5814 53.9264 183 88 54
15.859 -27.541 53.9282 186 92 62
16.518 -27.0207 53.929 182 92 58
17.4455 -26.1444 53.9253 186 107 62
18.3734 -25.2677 53.9215 179 99 55
19.4835 -24.6797 53.9329 183 107 61
20.5928 -24.0922 53.9443 142 91 81
21.6122 -24.1506 53.9755 107 79 92
29.6149 -13.204 53.8261 62 50 40
30.784 -12.7179 53.8427 91 45 19
31.446 -12.1953 53.8436 146 64 32
30.7259 -5.11091 53.5783 152 71 39
30.7063 -4.23203 53.5474 148 74 44
-23.3391 -21.9715 52.1725 106 95 99
-6.2481 -31.0085 52.9874 77 51 33
-0.62163 -30.8986 53.1471 164 128 95
2.03041 -31.0237 53.2287 164 96 42
9.91421 -29.9203 53.4191 177 81 50
11.362 -29.0676 53.4312 175 82 50
13.5114 -28.5291 53.4748 178 83 52
16.4576 -26.9253 53.5041 184 91 60
17.6539 -25.6924 53.4955 188 110 65
31.7197 -11.8347 53.4171 155 69 40
-4.43103 -31.3743 52.6255 144 97 57
-3.359 -31.4239 52.659 154 117 67
-1.15339 -30.8738 52.7045 166 132 103
-0.220664 -30.7314 52.727 170 131 92
2.95744 -30.8821 52.8264 169 97 49
3.68803 -30.4525 52.8327 174 97 54
4.54729 -30.2152 52.8496 171 80 46
5.59799 -30.2659 52.8825 171 76 48
6.70977 -30.4123 52.9206 173 79 48
7.88158 -30.6538 52.964 172 76 44
8.79672 -30.513 52.986 172 78 44
9.52136 -30.0862 52.9921 175 85 49
29.4991 -13.0059 52.9715 61 50 39
30.6687 -12.5196 52.9887 92 44 15
31.3894 -12.0964 52.9948 147 64 31
30.5895 -4.02746 52.6822 154 82 58
31.4778 -3.02733 52.6727 153 84 47
-24.8724 -20.6052 51.1903 103 105 115
-21.5942 -23.6336 51.3994 107 86 79
-7.05511 -31.3467 52.1179 67 43 25
-5.30319 -31.6147 52.1804 128 79 42
-2.95636 -31.2562 52.238 157 115 62
-2.15339 -30.9202 52.2499 155 118 71
1.50306 -30.9994 52.3628 168 94 51
2.03201 -31.0243 52.3796 167 87 42
9.91581 -29.9209 52.5766 179 87 55
10.2465 -29.6599 52.577 178 84 52
11.3636 -29.0682 52.5891 177 78 46
12.6666 -28.764 52.6172 178 82 49
13.575 -28.6254 52.6395 178 88 51
14.5434 -28.5823 52.667 184 100 63
15.4705 -27.7064 52.663 191 102 73
16.7275 -26.5698 52.6594 187 98 68
17.6555 -25.693 52.6553 186 104 63
18.7054 -25.0084 52.662 183 102 61
19.4859 -24.6806 52.6735 183 105 64
20.6555 -24.1896 52.6908 173 107 82
21.6146 -24.1516 52.7183 129 86 96
30.0658 -13.1422 52.5713 62 48 33
31.3319 -11.9971 52.5676 145 64 30
30.5709 -5.6825 52.3146 155 69 51
-6.58216 -31.2751 51.7008 98 61 28
-4.3624 -31.4715 51.776 149 101 55
-3.22401 -31.6174 51.8162 152 105 58
-2.55401 -31.0885 51.8171 155 114 63
-1.08566 -30.9708 51.8577 163 121 74
-0.153225 -30.8283 51.8809 166 111 65
1.56913 -31.0957 51.9435 168 90 46
2.89417 -30.7867 51.9726 169 85 45
3.6249 -30.357 51.979 173 86 48
11.8199 -28.999 52.1793 179 82 50
31.4794 -3.02796 51.8176 152 82 36
-24.7963 -20.7088 50.3071 105 106 120
-21.5194 -23.7357 50.5232 105 86 80
-5.23424 -31.712 51.3305 137 95 43
2.03362 -31.0249 51.5305 170 85 43
4.0233 -30.1907 51.5609 170 81 42
5.6004 -30.2669 51.6128 168 76 43
6.58448 -30.2218 51.6417 170 76 42
7.6935 -30.3681 51.6817 169 81 42
8.73591 -30.4185 51.716 171 87 49
9.52376 -30.0871 51.728 177 86 56
10.7042 -29.5907 51.746 176 78 47
11.4903 -29.2601 51.758 178 81 47
12.8547 -29.0513 51.7925 179 90 52
13.6385 -28.7215 51.8045 180 95 54
14.545 -28.583 51.8274 184 100 60
15.4105 -27.6113 51.8177 190 91 64
16.3382 -26.7347 51.8135 187 97 67
17.5349 -25.5012 51.8041 187 104 66
18.6462 -24.9127 51.8165 184 99 62
19.4269 -24.585 51.8284 186 98 66
20.6571 -24.1902 51.8518 177 102 80
30.4371 -12.1223 51.7006 97 45 18
30.3951 -5.37681 51.4448 159 68 49
30.1972 -4.19059 51.3939 155 74 59
31.8159 -2.76335 51.3904 151 81 52
-7.05268 -31.3476 50.8312 110 83 52
-6.10886 -31.2038 50.8555 139 101 51
-4.15987 -31.7615 50.9385 152 109 66
-3.02254 -31.907 50.98 151 103 57
-2.35299 -31.3784 50.9809 159 119 66
21.2279 -24.3159 51.4551 160 98 86
31.1009 -11.5993 51.2792 152 65 27
30.8099 -3.55844 50.9615 168 104 79
31.5401 -3.13144 50.9682 157 93 65
-25.8905 -19.954 49.3533 103 108 124
-24.7201 -20.8124 49.4243 105 104 116
-0.216629 -30.7329 50.5978 161 87 55
1.57154 -31.0967 50.6693 163 79 45
2.96146 -30.8836 50.7057 169 81 43
3.82138 -30.646 50.724 167 79 41
4.61572 -30.3127 50.7365 172 83 44
5.602 -30.2675 50.7664 173 82 45
6.98166 -30.0562 50.8024 171 77 41
9.52535 -30.0877 50.8853 177 80 47
10.8312 -29.7823 50.9153 177 77 45
11.7418 -29.6426 50.9391 176 77 44
12.5886 -29.4078 50.9571 179 82 49
13.702 -28.8176 50.9698 182 91 54
14.4849 -28.4881 50.9821 184 92 53
15.4121 -27.6119 50.9777 183 86 53
16.4856 -26.1869 50.9566 190 106 72
17.3531 -25.2129 50.9465 184 101 58
18.9167 -24.5566 50.9711 183 91 54
30.3802 -12.0233 50.8503 96 47 16
30.1599 -4.96841 50.5681 161 68 39
31.8175 -2.76398 50.5353 162 104 57
-21.4438 -23.838 49.2065 109 86 82
-5.90462 -31.4949 50.0166 142 96 49
-4.96305 -32.0989 50.0713 148 102 55
2.56439 -31.0509 50.2751 169 82 49
7.31421 -29.7947 50.3802 174 76 45
8.61184 -30.2284 50.4397 176 76 50
9.9198 -29.9225 50.4702 176 77 46
15.888 -26.8041 50.5412 182 94 62
31.0441 -11.5002 50.4288 152 64 28
-26.8393 -19.403 48.4083 101 110 133
-6.64584 -31.1797 49.5511 136 86 43
-4.42572 -32.1236 49.6626 153 103 59
-2.28412 -31.4757 49.7074 162 107 51
-1.14773 -30.876 49.7209 158 91 48
3.42554 -30.8133 49.8698 170 78 44
4.3493 -30.6717 49.8947 169 76 41
5.60361 -30.2681 49.9199 171 78 43
6.4599 -30.0314 49.9388 177 83 47
7.71041 -29.629 49.9639 174 71 46
20.4792 -23.9022 50.156 178 98 62
30.5963 -11.5626 49.994 137 67 30
30.3581 -3.61874 49.6662 158 69 39
31.4835 -3.02954 49.6797 168 88 56
-21.3691 -23.94 48.3313 110 85 78
-8.2716 -30.3519 49.0338 115 73 38
-5.7681 -31.6889 49.1726 144 86 45
-3.01931 -31.9082 49.274 153 103 54
-1.88232 -31.3082 49.2876 162 99 53
2.1679 -31.2184 49.4201 169 76 50
6.39674 -29.9358 49.5097 177 80 44
9.79553 -29.732 49.6156 174 76 49
10.8336 -29.7832 49.6526 176 74 51
11.8689 -29.8342 49.6895 172 73 48
12.6531 -29.504 49.7023 173 86 51
13.7044 -28.8186 49.7096 181 90 53
14.4873 -28.4891 49.7225 176 82 51
15.4145 -27.6128 49.7178 181 89 61
16.4266 -26.0917 49.6896 182 107 64
20.48 -23.9025 49.7362 180 96 60
31.8199 -2.76492 49.2526 159 72 41
-26.6873 -19.6108 47.5291 98 113 125
-4.42411 -32.1242 48.8085 149 92 49
-3.08508 -31.8123 48.8412 158 108 58
-2.28251 -31.4763 48.8546 165 106 59
-1.54689 -31.0443 48.8617 158 85 47
4.08299 -31.0306 49.0532 168 73 40
8.04369 -29.3678 49.1192 174 72 45
15.8904 -26.8051 49.2804 183 102 69
17.2951 -25.1177 49.2582 180 106 63
19.2497 -24.2975 49.2908 183 95 53
30.3597 -3.61937 48.8107 157 70 35
31.5441 -3.13301 48.8309 155 69 35
-25.363 -20.6778 47.1736 100 108 127
-7.59155 -30.5728 48.2062 134 76 43
-6.64341 -31.1807 48.2647 141 83 46
-5.76648 -31.6895 48.3165 146 89 50
-1.14531 -30.8769 48.4422 160 81 48
3.49269 -30.9102 48.6042 167 69 40
4.87731 -30.6978 48.6431 173 74 45
5.60601 -30.2691 48.6503 173 71 46
6.73039 -29.6743 48.6641 174 71 44
7.45822 -29.2462 48.6712 175 72 46
10.8978 -29.8792 48.817 176 72 46
11.8705 -29.8348 48.8488 173 78 47
12.6547 -29.5047 48.862 181 97 57
13.706 -28.8192 48.8695 181 85 55
14.4889 -28.4897 48.8827 178 86 53
15.4776 -27.7092 48.884 181 94 57
16.2211 -26.545 48.8606 185 112 86
17.4182 -25.3108 48.85 184 107 74
18.4692 -24.6257 48.8575 181 93 55
19.5803 -24.0375 48.8711 186 96 58
22.5189 -24.0202 48.9721 145 88 73
30.5401 -11.4636 48.7201 136 67 29
31.9394 -2.97138 48.4103 155 68 33
-12.5813 -28.7252 47.5222 53 41 32
-4.28857 -32.3174 47.9672 146 97 52
-3.35166 -32.1734 47.994 156 113 71
2.96629 -30.8855 48.1607 165 65 35
6.00307 -30.103 48.2338 174 72 46
9.79792 -29.733 48.3513 175 73 46
19.9714 -23.8741 48.4576 183 92 55
20.3616 -23.7104 48.4643 180 92 54
22.8483 -23.761 48.5538 122 78 71
23.1172 -23.4052 48.548 106 76 74
23.7152 -22.7898 48.5427 90 71 72
-25.2122 -20.8843 46.2981 99 110 121
-6.64178 -31.1813 47.4071 140 75 39
-5.56269 -31.9799 47.4802 146 83 45
-2.28008 -31.4773 47.5753 160 95 51
-1.54446 -31.0453 47.5828 157 77 42
0.785647 -30.6892 47.6503 164 78 43
2.90221 -30.7899 47.73 167 65 35
4.48223 -30.8649 47.7896 173 73 41
5.54345 -30.1738 47.7974 176 75 45
6.73199 -29.675 47.818 174 68 42
9.86167 -29.8288 47.9362 177 75 46
10.8994 -29.8799 47.9754 176 74 45
16.1384 -27.1894 48.0451 187 102 73
30.6003 -11.5642 47.8812 135 66 29
-12.2311 -29.2178 46.6898 53 41 32
-1.20903 -30.7814 47.1569 155 73 42
1.18581 -30.5223 47.232 165 73 40
3.43036 -30.8152 47.326 169 65 38
6.00467 -30.1037 47.3876 176 72 46
7.19239 -29.6051 47.4085 177 70 46
8.69544 -29.5865 47.462 174 69 47
11.1679 -29.524 47.5485 180 77 48
12.4705 -29.2194 47.5822 179 81 51
13.6465 -28.7246 47.6028 181 81 49
14.4296 -28.3951 47.6166 180 86 56
15.48 -27.7101 47.6243 188 99 71
16.5533 -26.2855 47.6003 192 103 70
17.0294 -25.476 47.5818 185 97 67
18.8624 -24.4627 47.6033 187 84 52
19.973 -23.8747 47.6175 183 90 52
20.8135 -23.6439 47.6377 182 97 54
23.7167 -22.7904 47.7049 91 71 75
31.8292 -11.1787 47.4859 159 70 30
-23.8962 -21.9441 45.5042 104 105 118
-10.7882 -29.7616 46.334 57 38 25
-7.65635 -30.4768 46.4807 135 69 31
-4.15243 -32.5107 46.7 146 89 48
-3.34924 -32.1744 46.7144 159 109 68
-2.27847 -31.4779 46.7225 159 77 48
-1.20822 -30.7817 46.7305 159 75 47
-0.275193 -30.6394 46.7583 156 73 37
1.71644 -30.5479 46.8272 169 69 45
2.9687 -30.8864 46.8882 172 67 46
4.54826 -30.9613 46.9494 172 66 45
5.48085 -30.0785 46.9441 176 72 49
6.7336 -29.6756 46.972 176 69 49
7.58877 -29.4394 46.9927 176 70 50
12.677 -28.7681 47.149 180 78 51
19.2537 -24.2991 47.19 185 87 52
21.3845 -23.7701 47.2444 179 94 61
22.4024 -23.8289 47.2843 150 91 75
-24.8373 -21.3993 45.0011 100 108 123
-22.8096 -22.6915 45.135 109 96 100
-12.4298 -29.683 45.8377 55 40 32
-10.4485 -29.4943 45.9027 74 45 25
-5.42566 -32.1738 46.2107 148 79 39
-1.94296 -31.214 46.2965 157 68 43
3.43196 -30.8158 46.478 174 66 43
8.69704 -29.5872 46.6178 176 70 46
9.67511 -29.5429 46.6521 177 73 43
10.5883 -29.4032 46.6796 177 78 48
12.4287 -28.3856 46.7018 184 79 51
13.5241 -28.5341 46.7492 183 83 53
15.4816 -27.7107 46.7845 198 102 77
16.6775 -26.4782 46.773 196 102 75
17.4834 -25.4086 46.7544 190 108 73
18.9247 -24.5597 46.7694 183 91 55
19.9746 -23.8753 46.7774 184 97 58
20.7548 -23.548 46.7915 180 94 54
21.8946 -23.7999 46.8452 166 94 72
22.6722 -23.4733 46.8593 116 74 71
30.6027 -11.5651 46.6134 140 66 31
32.7837 -11.1553 46.6758 165 67 35
-4.41844 -32.1264 45.8188 150 88 46
-3.07942 -31.8145 45.8549 162 92 55
-2.34329 -31.3822 45.8627 155 69 43
-1.14047 -30.8788 45.8848 160 69 51
-0.207753 -30.7364 45.9134 157 62 41
1.84857 -30.7409 45.991 167 67 44
11.3131 -28.9772 46.266 181 87 54
14.3084 -28.2048 46.3432 188 89 61
14.5765 -27.8488 46.3369 191 93 67
16.0802 -27.0949 46.3588 198 105 87
17.008 -26.2182 46.3534 195 107 76
19.1946 -24.2033 46.343 183 90 57
31.8316 -11.1796 46.2193 165 67 38
-22.8079 -22.6922 44.2503 107 97 103
-12.4282 -29.6837 44.9723 53 41 33
-7.44969 -30.7695 45.2128 136 67 32
2.97111 -30.8874 45.6157 167 67 42
3.96024 -30.8415 45.6513 169 65 44
4.81858 -30.6041 45.673 166 60 41
5.61163 -30.2712 45.6877 172 68 44
6.46791 -30.0345 45.7093 171 71 44
7.84556 -29.8238 45.752 171 75 45
8.69864 -29.5878 45.7736 173 82 47
9.67671 -29.5436 45.8088 175 86 46
10.4643 -29.2125 45.8234 176 84 51
11.5819 -28.6208 45.8384 181 87 54
12.9473 -28.4126 45.8808 183 82 52
13.8557 -28.2743 45.909 182 82 51
15.4217 -27.6156 45.938 195 98 73
16.679 -26.4788 45.9329 201 109 80
17.5461 -25.5056 45.9205 188 100 65
18.9871 -24.6568 45.9359 184 92 56
19.6465 -24.1362 45.9368 186 93 58
20.3664 -23.7122 45.9445 186 96 57
30.5457 -11.4658 45.7614 137 66 31
32.7853 -11.1559 45.8324 163 65 33
-11.9486 -29.6122 44.5547 52 40 30
-10.446 -29.4953 44.6073 76 46 27
-4.48384 -32.0306 44.9575 149 89 45
-3.27768 -31.5261 44.9803 158 79 48
-2.54107 -31.0935 44.9883 156 64 42
6.92832 -29.9645 45.3008 173 72 48
14.31 -28.2054 45.5029 184 81 52
14.5781 -27.8494 45.4964 187 84 56
16.1431 -27.1913 45.5257 196 101 70
17.0707 -26.3148 45.5201 191 94 65
21.5079 -23.9642 45.5804 182 100 68
31.8332 -11.1802 45.375 164 67 31
-22.7326 -22.7948 43.3734 107 98 101
-20.9224 -24.5506 43.5284 111 87 80
-5.62442 -31.8855 44.4787 138 83 44
-4.08079 -31.8627 44.538 153 92 54
-2.60673 -30.9974 44.5543 159 65 48
-1.27033 -30.6868 44.5917 157 61 43
-0.402974 -30.4481 44.6142 157 63 45
1.78573 -30.6457 44.7093 166 63 44
2.97272 -30.888 44.7674 167 65 41
4.55227 -30.9629 44.8328 170 64 45
5.74147 -30.4635 44.8555 169 62 44
6.66112 -30.3225 44.8847 171 64 45
7.64279 -30.2775 44.921 176 73 48
8.82679 -29.7798 44.9435 173 88 54
9.67831 -29.5442 44.9655 172 105 57
10.4031 -29.1174 44.9734 171 108 52
11.5835 -28.6214 44.9959 185 100 58
20.0988 -24.0696 45.111 185 95 56
30.5473 -11.4664 44.9161 138 65 28
-12.4257 -29.6846 43.6743 53 41 31
-11.1915 -29.9331 43.7353 53 39 29
3.56546 -31.0092 44.3726 170 68 44
4.61746 -31.0589 44.4167 169 67 44
8.16526 -30.303 44.5207 176 79 48
10.7975 -28.9523 44.5594 181 112 63
12.9497 -28.4136 44.6186 184 88 51
13.7961 -28.1795 44.6408 187 88 51
15.4241 -27.6165 44.678 187 87 64
16.7427 -26.5756 44.6797 185 91 62
17.4019 -26.0552 44.6806 188 99 62
19.3798 -24.4938 44.6832 183 84 52
20.9999 -23.9355 44.7203 186 98 58
31.8348 -11.1809 44.5305 162 68 31
-23.9643 -21.844 42.3926 103 104 117
-22.9518 -22.4895 42.465 105 96 98
-8.87244 -30.2328 43.4112 120 68 34
-7.10672 -31.256 43.5324 136 78 38
-4.4144 -32.128 43.6834 156 115 79
-3.34201 -31.4305 43.6922 159 81 54
-2.33656 -30.6368 43.6935 161 64 50
-1.20257 -30.7839 43.7462 155 59 42
-0.467317 -30.3522 43.7545 161 63 45
2.97432 -30.8886 43.9191 167 67 44
4.55387 -30.9635 43.9862 170 69 45
14.4569 -27.6588 44.2212 188 86 56
18.7821 -25.1109 44.2695 182 88 54
20.1608 -24.1666 44.2784 186 85 57
-24.0376 -21.7419 41.941 102 105 115
-12.2848 -29.8815 42.8244 54 42 32
-11.1898 -29.9338 42.8715 53 39 29
-5.62198 -31.8865 43.1952 143 96 63
-4.54761 -31.9355 43.2413 160 120 93
1.46148 -30.1652 43.3973 164 67 45
3.37286 -30.7221 43.5028 168 67 44
5.80798 -30.5602 43.5937 168 68 45
6.79117 -30.5148 43.6314 169 68 49
7.77221 -30.4695 43.6691 169 77 54
8.49802 -30.0422 43.6773 177 86 66
9.6807 -29.5451 43.7006 184 90 71
10.4055 -29.1184 43.7088 183 93 57
11.5859 -28.6223 43.732 180 97 59
12.5589 -28.5793 43.7694 185 103 65
13.4677 -28.4406 43.7995 184 92 59
15.4872 -27.7129 43.8453 186 83 59
16.7442 -26.5763 43.8398 185 87 55
17.4646 -26.1519 43.8479 185 92 60
18.575 -25.5636 43.8637 182 90 54
19.8927 -24.5234 43.8655 185 85 54
20.5515 -24.0033 43.8663 185 85 54
30.5497 -11.4674 43.6481 139 67 27
-23.2451 -22.0816 41.5471 106 96 99
-9.41463 -30.2076 42.5264 101 54 30
-8.80232 -30.3309 42.5579 119 64 32
-4.27839 -31.5746 42.8068 164 111 76
-3.54068 -31.1416 42.8153 158 78 55
-2.40144 -30.5408 42.8319 155 64 45
-1.0687 -30.9774 42.9088 156 60 40
0.13215 -30.4747 42.9328 162 61 44
8.43549 -29.9469 43.2479 183 87 70
10.7999 -28.9533 43.2951 174 84 56
14.2522 -28.1114 43.3947 185 84 59
14.4585 -27.6594 43.3803 183 81 55
16.1471 -27.1928 43.4263 191 92 66
17.8559 -25.988 43.4358 183 90 58
32.2849 -11.1199 43.2793 165 71 34
-7.10428 -31.257 42.2454 135 71 34
-6.56428 -31.282 42.2692 136 75 35
-5.82255 -31.5973 42.3162 141 84 42
-3.74039 -30.852 42.3649 155 67 45
1.06371 -30.3331 42.5385 163 64 46
2.84691 -30.6976 42.6314 166 70 46
3.9013 -30.7478 42.6779 170 77 44
4.82419 -30.6063 42.7091 169 75 39
5.80958 -30.5608 42.7478 168 74 48
6.66512 -30.324 42.7714 170 77 57
7.64679 -30.279 42.81 173 86 67
8.76753 -29.6857 42.8263 173 75 59
9.6823 -29.5457 42.8573 170 61 50
10.4071 -29.119 42.8657 173 73 57
11.5875 -28.6229 42.8895 184 117 87
12.6227 -28.6755 42.9353 187 113 76
13.4693 -28.4412 42.9586 180 86 52
15.4273 -27.6178 42.9981 184 87 59
16.7458 -26.5769 42.9998 189 85 62
25.5277 -19.3557 42.9966 85 65 60
25.891 -18.3461 42.9601 78 63 56
26.6696 -18.0208 42.976 75 61 51
27.3762 -15.1414 42.8582 66 54 45
30.6099 -11.5679 42.8103 137 67 29
-25.6996 -20.9584 40.4995 99 106 126
-24.9777 -21.1972 40.5423 101 107 122
-12.2128 -29.9804 41.535 53 41 32
-11.9429 -29.6145 41.5274 52 40 29
-7.10346 -31.2573 41.8164 137 70 37
-5.14919 -31.8155 41.9277 152 89 51
-4.47784 -31.2855 41.9286 163 87 56
14.1301 -27.9205 42.539 179 83 52
17.4059 -26.0567 42.5807 189 80 57
18.4557 -25.3723 42.5896 187 83 57
19.3232 -24.399 42.5758 184 88 62
20.8834 -23.7442 42.6077 187 99 64
24.6903 -19.5841 42.5529 98 74 64
26.9414 -17.6626 42.5484 74 60 49
27.1533 -17.2057 42.5337 72 58 48
27.3066 -16.6502 42.5114 71 56 46
31.664 -10.8827 42.3967 166 70 34
32.6177 -10.859 42.4357 165 67 35
-25.6241 -21.0616 40.0631 99 108 128
-9.27493 -30.4036 41.25 99 48 28
-8.73139 -30.4293 41.2746 116 56 31
-6.49498 -31.3795 41.4197 139 79 45
-1.26467 -30.689 41.6067 157 59 46
-0.397322 -30.4503 41.6312 161 63 52
2.91347 -30.7942 41.7905 166 69 47
3.96747 -30.8443 41.8381 167 70 48
4.89015 -30.7027 41.8701 171 69 45
5.87522 -30.6572 41.9097 170 74 44
6.66672 -30.3247 41.926 176 82 54
7.64839 -30.2796 41.9656 173 69 53
8.83239 -29.782 41.99 166 51 50
16.1495 -27.1938 42.1666 186 86 55
17.7364 -25.7968 42.1612 184 85 51
20.1044 -24.0717 42.1718 183 101 56
28.5991 -12.2796 41.9166 63 52 37
29.4988 -12.1546 41.9484 69 49 33
30.6115 -11.5685 41.9652 137 65 28
-25.6233 -21.0619 39.6183 97 109 128
-24.0334 -21.7435 39.7231 104 104 118
-11.1857 -29.9354 40.712 54 39 27
-9.27411 -30.4039 40.8194 92 44 24
-7.03398 -31.3549 40.9665 133 68 34
1.66158 -30.4557 41.2942 164 63 46
9.16436 -29.5209 41.5685 161 46 49
10.3466 -29.0241 41.5932 171 63 55
11.5899 -28.6239 41.6257 179 95 69
12.6873 -28.7721 41.6809 188 100 70
13.4717 -28.4422 41.6973 181 85 56
15.4296 -27.6187 41.7381 185 87 55
16.687 -26.4819 41.7321 181 90 53
17.7372 -25.7971 41.7412 181 100 50
19.6545 -24.1393 41.736 189 121 60
24.811 -19.7799 41.7275 161 92 53
25.4114 -19.1614 41.7206 140 78 49
25.9527 -18.4449 41.706 109 70 47
26.8247 -17.467 41.6918 92 73 43
27.4615 -16.0946 41.6465 84 62 40
27.3547 -14.2864 41.5461 75 56 41
31.0024 -11.4069 41.5509 155 67 28
31.6656 -10.8833 41.5517 164 70 33
-23.3886 -21.8786 39.3149 108 93 96
-10.7076 -29.8639 40.2971 59 36 24
-8.66135 -30.5274 40.4221 113 52 25
-6.42572 -31.4769 40.5707 138 75 33
-5.14675 -31.8164 40.6447 149 89 46
-4.40834 -31.3831 40.6537 154 77 49
0.935898 -30.1415 40.8205 158 57 40
2.85013 -30.6988 40.934 166 64 47
3.90452 -30.7491 40.9828 167 66 46
10.2845 -28.9287 41.1637 170 60 59
14.1944 -28.0172 41.2855 182 84 56
14.5243 -27.7567 41.286 182 85 54
18.0067 -25.441 41.3138 185 111 52
20.3147 -23.6191 41.3168 197 126 72
22.5627 -21.7 41.312 185 99 57
26.2836 -18.1847 41.2859 120 72 31
26.9785 -16.912 41.248 123 76 36
27.6159 -15.5379 41.2021 104 55 31
28.1731 -13.203 41.1011 74 49 40
-25.1233 -20.9928 38.7469 100 108 122
-9.13529 -30.5995 39.9748 92 42 21
1.59787 -30.3601 40.4359 160 59 42
4.36696 -30.6786 40.5755 170 71 48
5.81359 -30.5624 40.6331 173 70 48
6.54142 -30.1341 40.642 167 74 48
7.52363 -30.0892 40.683 173 102 69
8.64495 -29.4958 40.7003 169 86 57
9.62329 -29.4516 40.7411 165 64 51
10.8047 -28.9551 40.7663 176 72 61
11.5915 -28.6245 40.7831 192 102 73
13.5353 -28.5384 40.8643 183 79 54
14.4633 -27.6613 40.8577 179 87 61
15.6379 -27.1675 40.8828 179 99 57
16.5047 -26.1943 40.8682 185 110 54
17.5556 -25.5093 40.8775 188 108 56
18.2763 -25.0847 40.8862 187 112 63
18.8142 -24.3711 40.8713 194 127 74
19.5954 -24.0434 40.888 189 124 69
20.6452 -23.3591 40.8972 198 125 88
21.4537 -22.2875 40.8747 194 107 72
22.4435 -21.5061 40.876 194 101 64
23.3735 -20.6274 40.8694 183 95 54
24.8126 -19.7805 40.887 185 93 52
25.3535 -19.0644 40.872 177 84 44
25.895 -18.3476 40.857 165 86 39
26.7672 -17.3696 40.8424 173 101 50
27.6167 -15.5382 40.7805 143 73 41
28.7786 -12.5797 40.6712 73 51 43
29.6188 -12.3549 40.6961 71 48 30
30.6724 -11.6692 40.7055 138 65 27
31.2772 -11.0458 40.6983 163 69 31
-24.105 -21.642 38.3834 106 105 112
-23.4608 -21.777 38.4196 106 93 90
-11.114 -30.0342 39.4248 54 40 30
-7.03155 -31.3558 39.6798 137 66 30
-5.21235 -31.7205 39.7811 147 78 40
-4.47379 -31.2871 39.7903 153 69 46
12.5653 -28.5817 40.403 185 87 56
15.5157 -26.976 40.4466 182 111 61
16.5902 -25.5491 40.4162 187 108 56
19.9866 -23.88 40.4763 190 121 86
21.036 -23.1958 40.4856 193 120 86
24.0343 -20.1067 40.4498 186 100 58
26.2852 -18.1853 40.4448 173 95 44
26.921 -16.8143 40.3979 173 87 45
27.1924 -16.455 40.3903 167 82 41
28.2203 -14.9172 40.3518 139 72 33
28.0204 -13.7638 40.2795 123 63 31
-25.2708 -20.7876 37.8395 101 109 123
-11.6602 -30.0085 38.9669 51 42 33
-6.42328 -31.4779 39.2851 139 72 34
-0.859862 -30.5229 39.4834 156 66 50
1.13485 -30.4316 39.5685 163 59 43
2.7876 -30.6037 39.6527 170 60 45
3.84226 -30.6541 39.7031 168 62 43
4.70105 -30.4167 39.7288 172 68 51
5.75109 -30.4672 39.779 172 66 50
6.47913 -30.0389 39.7881 169 78 56
7.85677 -29.8281 39.8386 184 122 89
8.58319 -29.4005 39.8477 182 107 76
9.56184 -29.3565 39.8895 172 81 57
10.8063 -28.9557 39.9234 178 87 61
11.6556 -28.7209 39.9487 181 85 60
12.5661 -28.582 39.9822 183 86 58
22.9252 -20.6939 40.0119 187 110 61
27.4647 -16.0958 39.9614 173 78 45
27.8902 -15.1788 39.9297 169 80 39
28.2937 -13.4029 39.8493 149 79 45
28.7802 -12.5804 39.8255 110 67 45
29.6204 -12.3556 39.851 83 52 34
30.5569 -11.4702 39.8441 140 67 30
31.6105 -10.7846 39.8536 163 69 32
-24.1774 -21.5402 37.4869 106 106 120
-23.5331 -21.6752 37.5239 106 95 97
-9.06428 -30.6979 38.6921 92 52 28
-7.57046 -31.3314 38.7959 128 65 32
-5.34534 -31.5279 38.9086 152 85 45
-4.53924 -31.1911 38.9265 151 69 43
-3.39831 -30.5896 38.9448 153 63 45
13.4137 -28.3481 39.5869 177 109 60
14.3421 -27.4705 39.58 193 135 96
15.7857 -26.6201 39.5981 184 115 55
16.4457 -26.0991 39.599 185 100 50
16.6531 -25.6461 39.583 183 97 50
17.558 -25.5102 39.6167 183 104 51
18.8775 -24.4686 39.6184 184 105 52
19.5978 -24.0443 39.6275 185 108 53
20.5872 -23.2633 39.6288 190 110 67
21.4561 -22.2884 39.6137 189 109 65
22.4459 -21.5071 39.615 188 122 68
23.7657 -20.4652 39.6167 187 107 55
24.815 -19.7814 39.6262 185 88 50
25.5672 -18.6092 39.5947 181 83 47
26.5577 -17.8273 39.596 184 90 53
26.9226 -16.8149 39.5558 177 79 48
28.104 -14.72 39.492 171 82 44
29.8355 -11.8945 39.4123 104 49 27
-25.3436 -20.6853 36.9406 103 110 121
-10.4964 -30.1589 38.1649 53 36 23
-6.4893 -31.3817 38.4195 140 78 39
2.98397 -30.8923 38.8292 171 61 47
3.97309 -30.8464 38.8723 170 62 45
4.70265 -30.4174 38.8816 172 67 48
5.81679 -30.5636 38.9413 174 72 50
6.54462 -30.1353 38.9506 175 75 55
13.9508 -27.6355 39.1506 193 132 76
15.0649 -27.0456 39.1685 191 127 75
19.538 -23.9481 39.199 183 105 51
25.0267 -19.3261 39.1898 185 83 49
28.6638 -12.3815 38.963 161 97 48
29.5044 -12.1568 38.9891 123 71 37
-19.6939 -25.4924 37.0357 112 69 58
-11.6577 -30.0094 37.6706 52 41 32
-7.63683 -31.2351 37.9288 126 71 37
1.66015 -31.2018 38.3609 167 62 50
2.18881 -31.2266 38.3871 166 63 46
7.00489 -30.0653 38.5452 172 69 52
7.46399 -29.995 38.5626 175 74 56
8.64895 -29.4973 38.5893 182 89 59
9.62728 -29.4532 38.6324 182 85 57
10.7459 -28.8609 38.6506 174 74 49
11.5329 -28.5302 38.6683 175 90 54
12.8987 -28.3222 38.7202 183 128 73
13.8896 -27.54 38.7215 188 125 63
14.5502 -27.0185 38.7223 186 118 59
15.4573 -26.8813 38.7568 190 130 79
16.4473 -26.0997 38.7581 187 117 61
17.4374 -25.3182 38.7594 182 97 52
18.5492 -24.7296 38.7775 189 118 69
19.9292 -23.7846 38.7876 182 102 47
20.5284 -23.1672 38.7801 181 103 51
21.4577 -22.289 38.773 186 106 58
22.4475 -21.5077 38.7743 196 128 80
23.3775 -20.629 38.7672 186 108 58
24.8166 -19.7821 38.7857 185 90 50
25.6282 -18.7077 38.7619 179 84 44
26.4409 -17.6319 38.738 180 87 42
27.6797 -15.6384 38.6812 173 77 39
27.8461 -13.4668 38.5642 167 79 35
28.178 -13.2049 38.5646 166 82 35
29.7195 -11.6954 38.5498 134 61 24
-10.3568 -30.355 37.3199 53 38 28
-9.67426 -30.5758 37.365 61 39 26
-8.92485 -30.8935 37.4188 77 43 23
-6.55535 -31.2855 37.5534 140 80 49
-5.34291 -31.5288 37.6248 150 90 62
-4.46974 -31.2887 37.652 155 73 51
2.5877 -31.0599 37.9718 163 61 48
4.44637 -30.034 37.9999 173 67 49
16.6555 -25.647 38.3211 183 105 54
19.0882 -24.0159 38.3411 187 107 58
26.8066 -16.6191 38.2755 177 76 40
27.9293 -14.4238 38.2009 172 76 40
30.2669 -10.9715 38.1106 159 71 33
-19.9094 -25.1912 36.1296 111 65 53
-11.6561 -30.01 36.8064 52 42 34
1.79218 -31.3943 37.5292 162 61 44
3.38411 -30.7265 37.5659 167 71 53
5.62686 -30.2772 37.6465 174 65 50
6.48314 -30.0405 37.6734 174 66 52
7.92427 -29.9254 37.7354 177 67 52
8.77713 -29.6894 37.7622 175 68 47
9.69189 -29.5494 37.7976 176 73 56
10.3538 -29.0269 37.7985 170 74 55
11.5345 -28.5308 37.8256 179 114 76
12.7759 -28.1313 37.8613 188 133 92
13.4368 -27.6096 37.8622 191 140 84
14.9438 -26.8544 37.8897 181 116 61
15.6659 -26.4292 37.8992 192 133 81
16.4489 -26.1004 37.9172 190 120 67
17.5001 -25.4151 37.9271 180 94 45
18.5508 -24.7302 37.937 183 105 51
19.8703 -23.6886 37.9387 182 98 47
20.53 -23.1678 37.9396 180 103 49
21.4593 -22.2897 37.9323 183 107 56
22.3891 -21.4111 37.925 191 123 64
23.4389 -20.7269 37.9349 182 103 58
24.8182 -19.7827 37.9452 184 94 52
25.6298 -18.7083 37.9208 180 86 45
26.3833 -17.5344 37.8877 184 91 46
26.8074 -16.6194 37.8542 178 75 41
27.5632 -15.4416 37.8211 176 77 43
28.6662 -12.3825 37.6939 175 76 39
29.6035 -11.4961 37.6866 164 80 36
30.5412 -10.6094 37.6792 164 72 34
-10.2173 -30.5508 36.4757 50 38 31
-9.60396 -30.6739 36.5126 55 37 27
-8.92322 -30.8941 36.5585 65 34 22
-7.16159 -31.1641 36.6594 129 66 41
-6.08206 -31.2143 36.7145 145 84 59
-4.53519 -31.1926 36.7877 159 76 55
2.5243 -30.9646 37.1145 163 67 46
7.00729 -30.0662 37.2772 170 66 49
16.6571 -25.6477 37.4799 186 102 57
19.1506 -24.1132 37.5089 186 101 51
27.9309 -14.4244 37.3567 175 77 44
27.9077 -13.5671 37.3046 177 77 44
28.2394 -13.3052 37.3051 177 75 42
29.058 -12.2205 37.2801 174 78 40
-24.1206 -20.8563 34.7856 105 91 93
-20.1252 -24.8897 35.2223 112 68 61
-8.1068 -31.3084 36.1929 83 42 25
-5.47515 -31.3364 36.3228 153 87 60
2.92311 -30.798 36.6995 169 75 50
3.65384 -30.3683 36.7093 171 75 48
4.44878 -30.0349 36.728 173 72 43
5.62847 -30.2778 36.8 170 65 44
6.54863 -30.1369 36.8364 170 66 48
8.57415 -30.1428 36.9354 174 66 55
9.81948 -29.7413 36.9719 172 80 55
10.4811 -29.219 36.9728 169 96 61
14.0993 -27.0885 37.0211 190 125 68
27.5057 -15.3434 36.969 178 86 50
27.8726 -14.3257 36.9257 174 86 48
28.7268 -12.4829 36.8567 172 77 40
29.4873 -11.2967 36.8226 173 82 46
30.2492 -10.1085 36.7883 165 74 37
30.7383 -9.28159 36.7625 164 73 35
-11.9928 -30.2787 35.5097 50 43 30
-10.9683 -30.2327 35.5573 48 40 28
-7.15997 -31.1647 35.8013 118 56 29
-6.148 -31.118 35.8482 143 75 44
-4.53357 -31.1933 35.9322 155 74 52
2.12774 -31.1322 36.2563 161 66 49
7.07267 -30.1626 36.4408 173 66 51
11.662 -28.7234 36.5793 188 123 72
12.3232 -28.2014 36.5802 185 115 67
13.377 -27.5145 36.5904 189 129 75
14.8845 -26.7593 36.6187 188 110 57
15.6682 -26.4302 36.6373 190 111 56
16.4513 -26.1013 36.6559 191 107 57
17.5636 -25.5124 36.6749 180 94 50
18.614 -24.8275 36.685 185 99 51
19.6034 -24.0465 36.6863 181 95 49
20.5324 -23.1688 36.6788 187 111 64
21.522 -22.3876 36.6801 182 108 61
22.3914 -21.4121 36.6637 188 119 67
23.4413 -20.7279 36.6738 185 114 71
24.7015 -19.5885 36.6667 181 94 53
25.5134 -18.5135 36.6415 180 86 46
26.7506 -16.5219 36.5815 177 78 48
28.182 -13.2064 36.4508 175 90 45
29.0006 -12.1213 36.4253 169 72 40
29.9174 -10.3713 36.3642 164 75 37
-20.3413 -24.5877 34.3137 111 69 58
-9.5328 -30.7723 35.2301 51 36 27
-8.92078 -30.8951 35.268 58 35 23
-8.17338 -31.2119 35.3246 73 39 20
-5.47353 -31.337 35.4665 147 78 41
-3.79434 -30.7603 35.5146 151 59 42
3.65544 -30.3689 35.8609 176 83 65
4.70827 -30.4195 35.9164 172 71 54
5.6942 -30.3742 35.9626 173 65 52
6.55023 -30.1375 35.9907 172 61 50
9.03319 -30.0732 36.1101 164 71 50
14.1009 -27.0891 36.1791 189 111 64
16.7821 -25.8411 36.2359 189 99 52
19.934 -23.7864 36.2666 180 99 58
26.0561 -17.7964 36.2037 179 88 53
29.5857 -10.6341 35.9401 168 75 36
30.2895 -9.34361 35.8959 169 82 40
30.8379 -8.61625 35.8786 165 74 31
-7.22626 -31.0684 34.9337 110 51 26
-6.14638 -31.1187 34.991 137 66 35
8.57654 -30.1437 35.6699 166 67 52
9.88483 -29.8378 35.7166 177 118 70
10.6718 -29.5069 35.7356 182 128 74
11.3956 -29.0806 35.7456 185 124 72
12.3871 -28.2979 35.7469 183 109 62
13.4408 -27.6111 35.7572 185 102 62
14.8861 -26.76 35.7771 189 105 66
15.6698 -26.4308 35.7961 184 99 53
16.5143 -26.198 35.824 189 100 53
17.5652 -25.513 35.8344 186 94 53
18.9454 -24.5678 35.8451 187 93 53
19.8742 -23.6902 35.8374 180 98 53
20.534 -23.1694 35.8383 191 112 65
21.5236 -22.3882 35.8396 186 102 60
22.393 -21.4127 35.8228 185 114 71
23.8922 -20.6627 35.8516 193 129 84
24.7031 -19.5891 35.8258 183 107 52
25.6338 -18.7098 35.8181 177 97 45
26.2687 -17.3395 35.7651 181 93 53
26.7522 -16.5225 35.7388 175 80 47
27.449 -15.2456 35.6947 179 92 51
27.8159 -14.2274 35.65 178 93 46
28.3973 -12.7459 35.5875 177 79 38
29.0985 -11.4599 35.543 172 73 38
-11.1042 -30.038 34.2433 48 38 33
-10.1443 -30.65 34.3302 48 38 32
-9.59988 -30.6755 34.3594 50 37 28
-8.44479 -30.8238 34.4273 67 40 26
-4.46407 -31.2909 34.6584 151 74 44
7.01129 -30.0677 35.1639 171 60 53
7.47039 -29.9975 35.1827 169 60 54
9.03479 -30.0738 35.2669 166 90 59
11.7894 -28.9157 35.3341 183 118 74
14.1644 -27.1858 35.3463 179 96 63
16.845 -25.9379 35.4041 190 98 54
19.2153 -24.2113 35.4163 184 89 50
20.8646 -22.9093 35.4185 191 112 60
23.1737 -21.0865 35.4215 187 125 87
27.9117 -13.5687 35.1913 177 85 39
28.1844 -13.2073 35.1825 177 81 37
-12.0672 -29.4239 33.7232 47 38 32
-9.12387 -30.6039 33.9486 51 36 26
-6.75211 -30.9972 34.0949 129 61 35
-5.47109 -31.338 34.1821 143 68 35
-3.5913 -31.0513 34.2603 155 66 43
-3.25585 -30.7865 34.2607 156 63 42
-2.51837 -30.3536 34.2711 156 60 44
2.52912 -30.9664 34.5684 162 57 46
3.72258 -30.4659 34.5978 166 63 47
4.7751 -30.5164 34.655 168 63 51
5.69661 -30.3752 34.6932 170 63 51
6.55263 -30.1384 34.7221 171 63 51
7.53484 -30.0936 34.7696 166 61 53
8.6414 -30.2399 34.8355 164 85 65
9.49268 -30.004 34.8642 175 121 90
10.7988 -29.6986 34.9118 178 135 91
11.3972 -29.0812 34.9034 173 117 74
12.451 -28.3943 34.914 173 108 72
13.4424 -27.6117 34.9153 160 91 61
14.9494 -26.8566 34.9447 186 104 62
15.6714 -26.4314 34.9548 189 103 57
16.4545 -26.1025 34.9741 187 98 51
17.5668 -25.5136 34.9939 188 93 50
18.8862 -24.472 34.9956 186 89 52
19.8152 -23.5941 34.9877 182 100 50
20.4751 -23.0732 34.9885 192 117 63
21.4649 -22.2918 34.9898 185 99 56
22.3946 -21.4133 34.9819 187 118 71
23.4445 -20.7291 34.9925 192 126 81
24.7047 -19.5897 34.985 185 97 53
25.576 -18.6126 34.9678 179 94 56
26.2703 -17.3402 34.9229 180 91 53
26.6945 -16.4247 34.8868 177 82 46
27.4506 -15.2462 34.851 174 82 46
27.8766 -14.3272 34.8147 177 85 45
28.7308 -12.4844 34.742 176 76 38
29.4914 -11.2983 34.706 174 78 39
30.3508 -9.44525 34.6328 171 71 37
31.0957 -7.38306 34.5406 164 71 30
-8.57989 -30.6298 33.5479 61 38 27
-4.39538 -31.3881 33.8127 152 76 42
-3.4569 -31.2447 33.8521 154 67 41
-2.451 -30.4507 33.8535 155 60 42
-1.44878 -30.405 33.9024 156 64 50
0.745868 -30.6029 34.0285 160 56 46
9.95014 -29.9343 34.4619 171 135 108
14.166 -27.1864 34.5045 152 88 56
16.8466 -25.9385 34.5634 192 99 53
19.2169 -24.2119 34.5758 182 88 47
20.7454 -22.7162 34.5593 192 119 65
28.3041 -13.4069 34.3558 179 76 41
29.0636 -12.2227 34.3195 179 78 43
29.7656 -10.9361 34.2737 173 71 40
30.5669 -8.98128 34.1903 170 68 35
-6.75048 -30.9978 33.2369 127 65 34
-6.21073 -31.023 33.2668 140 70 35
-5.3348 -31.532 33.3453 146 74 39
-0.782489 -30.6238 33.5245 161 72 57
1.87192 -30.7499 33.6713 161 59 47
2.92874 -30.8002 33.7297 163 64 49
3.72419 -30.4665 33.7497 168 66 50
4.9697 -30.8044 33.8366 167 60 49
5.76231 -30.4716 33.8565 167 65 54
6.61812 -30.2349 33.8859 164 66 54
7.60001 -30.1899 33.9343 155 73 55
21.7362 -21.9349 34.1402 182 110 55
27.8191 -14.2287 33.9609 179 84 44
28.5776 -13.0458 33.9242 179 72 41
29.493 -11.2989 33.8593 174 69 41
29.9811 -10.4735 33.8316 171 66 39
30.2347 -9.24447 33.7656 173 69 39
30.7244 -8.41586 33.7377 170 66 36
-8.17233 -30.4613 32.698 70 36 22
-4.32676 -31.4853 32.9674 150 78 48
8.24944 -30.4067 33.5603 134 100 90
9.7629 -29.6482 33.5907 136 128 106
10.9265 -29.8904 33.6678 138 131 127
11.5871 -29.3689 33.6687 142 138 153
12.9083 -28.3259 33.6704 160 164 192
13.9611 -27.6396 33.6813 140 104 98
14.5598 -27.0222 33.6726 164 86 52
15.6738 -26.4323 33.6929 184 97 53
16.8482 -25.9391 33.7227 188 100 54
17.5692 -25.5145 33.7331 189 94 53
18.6196 -24.8297 33.7439 186 83 49
19.8782 -23.6917 33.7361 190 98 54
20.747 -22.7168 33.7184 192 115 70
21.407 -22.1958 33.7193 179 109 56
22.337 -21.3171 33.7111 188 120 70
23.4469 -20.73 33.7314 192 120 72
24.6475 -19.4931 33.7141 185 103 59
25.519 -18.5156 33.6964 179 98 55
26.2727 -17.3411 33.6597 179 97 56
26.6969 -16.4256 33.6224 180 94 56
27.1219 -15.5085 33.5851 182 92 50
28.5194 -12.9466 33.4919 179 72 41
29.0652 -12.2233 33.4736 178 69 42
31.2156 -7.58659 33.285 168 71 35
-5.40049 -31.4359 32.4795 144 69 40
-3.78977 -31.5104 32.5701 157 81 54
-2.45112 -31.1991 32.6209 157 67 50
-0.182738 -30.7461 32.7119 156 66 53
1.80827 -30.6544 32.8118 154 61 52
2.93035 -30.8008 32.8812 155 64 56
5.68829 -31.1169 33.0488 133 72 74
12.3731 -29.0389 33.268 174 183 194
13.4256 -28.3527 33.2789 187 185 196
16.0663 -26.2682 33.2823 183 94 51
19.2193 -24.2128 33.315 183 85 51
20.0878 -23.2381 33.2971 187 102 57
21.7378 -21.9356 33.2993 185 115 63
24.1075 -20.2094 33.3119 189 112 59
26.8509 -15.8689 33.1725 183 93 50
29.865 -10.2735 32.9649 169 68 34
30.1774 -9.14429 32.9073 169 69 38
30.6672 -8.31551 32.8789 169 70 39
-1.78373 -31.417 32.2445 151 59 48
4.24326 -31.2342 32.5562 121 81 80
5.88118 -31.4037 32.6555 121 101 99
7.39818 -30.6436 32.6865 138 131 153
8.72344 -29.5974 32.6883 158 162 189
9.38606 -29.0743 32.6891 169 175 197
10.5519 -29.3178 32.7679 175 181 198
11.5262 -29.274 32.8174 181 184 199
12.8906 -29.0652 32.8768 195 195 209
13.4264 -28.3531 32.8583 195 190 202
14.4167 -27.5713 32.8596 150 85 63
15.4069 -26.7896 32.8609 183 88 56
16.9111 -26.0359 32.8917 185 99 52
17.5708 -25.5151 32.8926 185 96 52
18.6212 -24.8303 32.9035 184 85 47
19.8798 -23.6924 32.8956 189 105 61
20.6882 -22.6205 32.8679 190 114 67
21.3483 -22.0994 32.8687 185 113 61
22.2785 -21.2204 32.8604 190 117 72
23.3886 -20.6333 32.881 188 108 58
24.4979 -20.0468 32.9017 191 111 61
24.9792 -19.2331 32.8735 182 97 56
25.5206 -18.5163 32.855 182 105 63
26.6392 -16.3277 32.7698 183 96 50
27.5492 -14.5904 32.7033 179 83 43
28.7349 -12.486 32.6273 176 72 39
30.7661 -7.64796 32.4152 169 72 35
-9.53623 -29.2641 31.2534 51 38 28
-6.34281 -30.8303 31.5316 119 57 33
-4.19037 -31.6793 31.7052 149 75 49
-2.05114 -31.7777 31.8279 142 61 46
-1.24993 -31.4422 31.8488 139 65 51
-0.515381 -31.0106 31.8597 135 74 65
0.350299 -30.7719 31.8907 125 77 84
1.94032 -30.8473 31.982 113 81 111
3.65337 -31.114 32.0928 115 105 130
6.40503 -31.4285 32.2631 136 148 154
6.48118 -30.785 32.2241 144 156 164
16.2751 -25.8157 32.4221 186 95 54
19.1601 -24.1169 32.4647 183 92 48
20.0288 -23.142 32.4465 189 108 69
21.619 -21.742 32.4389 187 114 63
22.6094 -20.9601 32.4402 188 109 66
25.3695 -19.0705 32.4632 184 100 50
26.3344 -17.4402 32.4062 186 102 53
26.8525 -15.8695 32.329 183 98 48
27.065 -15.4106 32.3098 180 95 47
28.1308 -13.11 32.2133 176 77 39
29.1049 -11.4624 32.1557 175 67 38
29.9638 -9.60924 32.0781 174 76 40
30.4723 -7.14125 31.9402 169 71 36
-15.7432 -27.2417 30.3452 88 51 38
-5.5328 -31.2434 31.1749 122 65 47
-3.58687 -31.8007 31.3191 127 73 65
2.40465 -30.7766 31.5778 133 129 154
4.89875 -31.4506 31.76 156 159 184
5.69069 -31.1178 31.7808 163 169 188
6.94109 -30.7147 31.822 174 181 200
7.54044 -30.0957 31.8129 181 183 206
8.40819 -29.1187 31.7943 188 189 206
11.4653 -29.179 31.9657 194 193 208
12.9736 -28.4229 31.9971 198 195 216
26.6408 -16.3283 31.9267 182 97 52
27.4324 -14.3927 31.839 180 96 48
27.7997 -13.3723 31.7901 175 78 40
28.6184 -12.287 31.7614 174 70 38
29.4758 -10.4366 31.6831 173 71 40
-24.1322 -20.0705 28.9558 110 81 70
-15.0464 -27.4689 29.9632 72 48 39
-2.11585 -31.6821 30.9653 110 95 122
-1.31443 -31.3465 30.9867 111 109 132
3.65498 -31.1146 31.2454 167 169 188
6.21511 -31.1429 31.3887 181 183 195
7.8092 -29.7385 31.3809 187 186 210
9.84588 -29.0055 31.4433 191 196 205
10.9477 -29.1534 31.5143 193 198 208
11.341 -28.9881 31.5247 194 196 209
13.8208 -28.1891 31.6071 183 161 162
14.4191 -27.5723 31.598 150 84 62
15.8009 -26.626 31.6097 186 82 55
16.9746 -26.1329 31.6409 187 87 53
17.5732 -25.5161 31.6318 189 95 56
18.5628 -24.7349 31.6331 184 96 51
19.8216 -23.5966 31.6249 188 105 58
20.6906 -22.6215 31.6063 185 110 59
21.411 -22.1973 31.6171 186 112 59
22.341 -21.3186 31.6084 188 112 59
23.4509 -20.7316 31.6297 186 114 57
24.5003 -20.0477 31.6409 187 111 58
25.3711 -19.0712 31.6223 182 94 51
25.9125 -18.3545 31.6032 184 97 55
26.2767 -17.3426 31.5542 180 94 54
26.7948 -15.7714 31.4755 181 103 62
27.0074 -15.3123 31.4559 182 108 61
28.1324 -13.1106 31.3676 173 72 38
28.8923 -11.9253 31.3286 172 70 39
29.1655 -11.5631 31.319 171 70 39
-16.5816 -26.8158 29.3971 106 55 41
-6.94829 -30.7088 30.2025 60 58 45
-5.26184 -31.6308 30.3601 93 86 77
-3.58525 -31.8013 30.4654 117 114 122
-0.913179 -31.1792 30.5714 146 148 176
0.883426 -30.798 30.6453 151 155 166
1.94274 -30.8482 30.7078 163 166 184
2.93437 -30.8023 30.7599 172 173 191
4.77179 -31.2601 30.8939 183 179 199
6.41972 -30.6903 30.9465 186 185 198
7.74644 -29.643 30.9482 186 186 203
8.4098 -29.1193 30.9491 187 189 207
10.2408 -28.8403 31.0319 193 196 210
16.1546 -25.6241 31.1398 187 84 54
19.2233 -24.2144 31.2137 184 102 49
20.0312 -23.1429 31.1849 188 116 58
21.7418 -21.9371 31.1971 189 115 61
22.6118 -20.961 31.1783 185 117 65
24.4415 -19.9505 31.2106 186 109 57
27.3748 -14.2941 30.9841 185 97 52
27.7421 -13.2734 30.9342 176 77 42
28.62 -12.2877 30.9152 173 72 38
29.4397 -11.201 30.8859 174 74 40
29.9867 -10.4757 30.8664 174 75 38
-22.7456 -21.2352 28.2253 109 66 54
-4.18713 -31.6805 29.9961 120 135 142
3.00004 -30.8986 30.346 175 176 191
5.10463 -30.9983 30.4713 183 183 203
7.08388 -30.167 30.5248 187 188 195
11.4229 -28.3444 30.642 196 200 214
14.2969 -27.3811 30.7367 149 87 61
15.6794 -26.4345 30.7486 192 86 60
16.7925 -25.8451 30.7701 187 86 53
17.3914 -25.2278 30.7609 186 86 46
18.5643 -24.7355 30.7926 188 96 50
19.8232 -23.5972 30.7842 186 117 57
20.7526 -22.719 30.7754 192 126 72
21.4126 -22.1979 30.7762 182 108 58
22.4026 -21.4164 30.7775 189 132 89
23.4524 -20.7322 30.789 187 129 72
24.7722 -19.6904 30.7907 184 107 52
25.584 -18.6157 30.7616 181 105 52
26.1596 -17.1467 30.6917 180 105 51
26.5246 -16.132 30.6416 183 102 49
26.8311 -15.0161 30.5812 190 103 54
28.134 -13.1112 30.5219 174 78 42
29.6893 -7.46695 30.2166 175 70 35
-17.4941 -26.2885 28.4349 112 57 35
-16.5799 -26.8164 28.5239 105 55 39
-6.20342 -31.0259 29.4084 117 133 141
-5.59697 -31.1479 29.4514 132 145 160
-3.24856 -31.5374 29.612 153 165 167
-2.379 -31.2977 29.6445 146 154 165
-1.2459 -31.4437 29.7191 144 147 165
-0.511346 -31.0121 29.7305 161 159 164
12.8332 -28.9716 30.3445 196 196 210
13.307 -28.1634 30.3146 192 190 196
13.6373 -27.9027 30.3151 179 162 156
14.5043 -26.9287 30.2959 167 81 53
19.2249 -24.215 30.3732 187 109 55
20.0933 -23.2403 30.354 188 127 68
21.6832 -21.8407 30.346 181 111 59
24.0534 -20.1141 30.3592 190 125 66
25.0435 -19.3326 30.3605 180 109 52
-23.5354 -20.895 27.2693 110 84 73
1.54653 -31.0163 29.4227 118 132 142
2.01034 -30.9452 29.4442 153 166 190
3.99075 -30.8533 29.5511 166 170 164
4.51673 -30.8783 29.5829 166 165 154
5.77033 -30.4747 29.6261 147 150 147
6.49837 -30.0464 29.6374 171 179 175
7.62161 -29.4521 29.6596 120 124 142
8.4122 -29.1203 29.6814 120 128 135
11.4245 -28.345 29.7989 194 199 215
12.8533 -28.233 29.8728 192 195 205
13.9683 -27.6424 29.8948 149 113 100
14.959 -26.8603 29.8961 180 82 60
15.681 -26.4351 29.9073 190 82 61
16.8553 -25.9419 29.9396 187 86 57
17.5763 -25.5173 29.9508 186 85 52
19.2863 -24.3118 29.9633 188 107 56
19.8248 -23.5978 29.9435 185 119 58
20.7542 -22.7196 29.9345 194 140 84
21.4142 -22.1985 29.9353 183 113 66
22.3442 -21.3198 29.9263 194 134 84
23.3942 -20.6355 29.9379 190 125 68
24.6547 -19.4959 29.9293 180 114 59
25.5261 -18.5184 29.91 186 116 59
26.1019 -17.049 29.8388 186 104 56
26.62 -15.4762 29.757 181 90 49
27.3179 -14.1958 29.7062 179 79 46
27.7445 -13.2743 29.6654 176 78 44
28.6224 -12.2886 29.6458 176 79 46
29.501 -11.302 29.6262 170 72 39
29.7156 -10.8394 29.6057 168 71 38
29.9686 -9.61111 29.5331 172 73 37
29.6909 -7.46757 29.3653 173 73 35
29.8476 -6.89903 29.334 172 72 35
30.1228 -6.53335 29.3238 170 72 35
-21.8606 -22.4627 27.0342 113 73 58
-18.698 -25.3578 27.4238 120 64 43
-6.20179 -31.0265 28.551 134 142 152
-4.31866 -31.4884 28.6928 155 162 167
-3.44718 -31.2485 28.7259 133 139 137
-1.31039 -31.3481 28.8565 100 108 106
0.021912 -31.0378 28.9112 129 134 134
0.952149 -30.8954 28.9548 91 101 93
13.3086 -28.164 29.4732 191 190 196
14.2375 -27.2861 29.4641 149 88 68
16.0734 -26.271 29.4975 188 86 60
18.3587 -25.1894 29.5522 186 88 53
18.6884 -24.9291 29.5526 185 90 52
20.0949 -23.2409 29.5132 183 125 67
21.6848 -21.8413 29.5049 178 110 59
24.055 -20.1148 29.5184 187 113 61
25.1045 -19.4308 29.5301 186 115 65
26.0433 -16.951 29.407 182 102 54
28.1364 -13.1121 29.2534 178 76 46
-16.5062 -26.917 27.2254 107 58 41
-5.66195 -31.052 28.1555 150 155 167
1.41748 -30.8247 28.5515 94 100 94
2.80851 -30.6118 28.6172 133 135 121
4.91501 -30.7124 28.7472 109 118 132
5.70783 -30.3795 28.7694 76 93 110
6.49997 -30.047 28.7916 125 135 144
7.62322 -29.4527 28.8141 97 115 136
8.4138 -29.1209 28.8363 105 122 155
10.8898 -29.0595 28.9761 198 198 222
11.6138 -28.6332 28.9875 196 198 219
26.6216 -15.4768 28.9128 187 104 61
27.3195 -14.1965 28.8611 182 89 55
27.7461 -13.275 28.8195 181 84 53
28.624 -12.2892 28.7995 177 78 44
29.8731 -10.2766 28.7271 174 72 39
29.7517 -7.56963 28.5247 172 73 39
29.6715 -6.5944 28.4497 171 75 41
30.0061 -6.3303 28.4502 172 78 44
-21.7856 -22.5653 26.1618 112 70 51
-16.0206 -26.8462 26.8122 88 48 37
-4.38404 -31.3925 27.8269 145 150 153
-3.57915 -31.056 27.8497 106 112 128
3.20732 -30.4453 28.204 119 131 128
9.85148 -29.0077 28.4899 192 194 220
12.7934 -28.1381 28.5995 197 199 211
13.4543 -27.6164 28.6003 178 163 161
14.8997 -26.7652 28.6233 175 89 58
15.6218 -26.3399 28.6348 187 94 59
16.7352 -25.7504 28.6573 183 94 52
17.5787 -25.5182 28.69 182 96 50
19.2887 -24.3127 28.7028 183 111 53
19.8272 -23.5987 28.6824 190 118 61
20.7565 -22.7205 28.6731 196 126 78
21.4166 -22.1995 28.674 192 128 78
22.4066 -21.4179 28.6753 197 118 72
23.3966 -20.6364 28.6766 194 105 70
24.5379 -19.3014 28.6465 182 121 65
25.5879 -18.6172 28.6584 187 118 58
26.1043 -17.05 28.5747 183 107 53
26.257 -16.4934 28.5432 181 104 54
