ply
format ascii 1.0
element vertex 1309
property float x
property float y
property float z
property uchar red
property uchar green
property uchar blue
end_header
18.1316 -28.1754 1.28677 161 152 110
18.0752 -27.8298 0.791998 162 149 112
16.4916 -28.5585 0.39785 167 163 124
17.0209 -29.1248 0.540548 165 158 120
16.8791 -31.9856 137.2 211 233 254
-10.2673 -31.7243 136.744 117 150 142
-9.35492 -31.6641 136.735 116 151 169
17.3619 -30.8446 136.417 195 215 238
-11.1746 -31.7833 136.321 110 128 79
18.409 -27.5993 136.171 177 185 171
-18.8205 -31.6006 135.998 102 119 130
-10.302 -31.6112 135.887 111 127 132
3.62518 -32.7659 135.639 149 162 186
4.04891 -32.6815 135.638 159 170 208
16.9043 -31.9805 135.512 172 180 213
17.7916 -30.7589 135.571 161 173 197
34.0426 -5.01253 136.852 116 135 71
-12.4129 -31.066 135.512 121 131 101
-11.7387 -31.5344 135.477 122 133 118
3.59414 -32.6546 134.793 159 167 199
29.1331 -13.3222 135.573 153 166 192
33.0739 -7.54866 135.851 103 111 89
-18.4626 -31.2881 134.705 81 90 102
-13.4141 -31.9845 134.606 150 163 186
1.43424 -32.967 134.375 141 152 130
2.32789 -32.9067 134.368 124 133 141
17.4338 -30.9465 134.297 129 142 130
18.6358 -28.1407 134.44 161 169 171
18.9335 -27.73 134.459 162 171 161
19.646 -24.7621 134.616 151 151 78
4.54147 -32.7007 133.927 163 175 208
17.8168 -30.7538 133.881 135 148 158
18.9732 -25.3676 134.164 158 163 147
29.4917 -13.01 134.724 155 167 194
-18.5491 -31.0626 133.848 90 105 94
26.1962 -15.2216 134.209 133 149 139
30.5768 -10.8495 134.398 124 138 119
19.3657 -25.172 133.319 156 168 168
26.6257 -15.139 133.778 116 132 124
30.3915 -10.2719 133.999 100 112 76
34.0338 -6.25458 134.175 79 102 110
-11.8939 -32.1647 132.848 153 164 215
19.4525 -25.3912 132.88 158 169 181
28.9724 -12.7438 133.45 154 164 154
31.1695 -9.87853 133.579 61 78 65
23.2803 -22.27 132.579 125 136 57
23.8444 -21.3268 132.622 110 125 56
31.4919 -9.44877 132.732 56 79 72
34.3275 -5.7034 132.897 124 136 104
17.478 -30.9376 131.34 137 153 173
18.9047 -29.9553 131.376 153 163 127
22.2477 -24.3685 131.629 138 146 47
23.3719 -22.4896 131.713 121 133 52
34.9211 -4.72252 132.507 91 105 92
25.0741 -19.6544 131.413 92 108 60
28.5749 -12.8196 131.724 100 115 56
33.8397 -5.54674 132.04 83 105 65
-10.8481 -31.2387 130.723 71 91 190
22.2767 -25.6594 130.714 136 144 45
27.9672 -13.6666 131.256 103 111 79
23.7582 -20.9858 130.504 111 125 77
33.5876 -4.72344 131.213 63 84 62
33.5857 0.933018 131.487 107 125 138
-9.82028 -30.3154 129.894 48 78 189
12.4441 -31.8262 129.647 84 95 78
27.9801 -13.664 130.393 101 105 76
11.9893 -31.8003 129.227 117 108 97
22.2167 -25.4359 129.451 126 138 73
24.376 -20.1488 129.684 131 143 128
26.3388 -15.4361 129.891 153 163 185
29.8713 -9.87875 130.126 126 135 46
-17.0157 -31.1249 129.041 58 75 73
-10.0451 -29.7573 129.055 52 77 187
16.6003 -30.8802 128.813 144 158 173
25.7519 -18.9238 129.303 80 97 59
32.6709 -6.01424 129.853 69 81 48
-17.4465 -31.2094 128.605 54 72 66
21.0933 -26.0106 128.583 140 150 121
23.2588 -22.0362 128.749 150 159 172
8.43702 -33.0928 127.92 115 108 156
22.2193 -24.1374 128.235 150 165 182
24.6588 -19.6152 128.422 107 112 77
25.3048 -18.8906 128.451 86 102 48
26.9698 -14.5869 128.634 155 166 169
29.0807 -11.5009 128.759 89 100 47
23.0095 -22.5603 127.874 138 154 161
31.9096 -7.76727 128.475 112 123 52
31.8766 -6.28751 128.54 108 119 50
26.1752 -14.8608 127.764 142 154 135
28.9388 -11.0378 127.915 106 113 59
25.3631 -18.999 127.161 111 126 48
25.9152 -15.3961 127.312 135 144 98
30.9538 -8.93467 127.562 105 124 54
31.9226 -7.76466 127.607 114 125 49
21.0057 -25.6746 126.473 160 165 190
31.9726 -6.51741 127.225 113 127 50
-6.12635 -31.1461 125.945 127 47 85
17.2369 -30.0545 125.884 146 152 121
28.4559 -10.8841 126.625 124 130 56
30.1553 -9.20904 126.687 74 82 53
32.214 -5.85113 126.816 113 129 50
29.1183 -10.144 126.22 108 120 55
31.9856 -6.5148 126.355 101 121 52
21.2447 -25.0378 125.222 160 166 168
28.6264 -12.6869 125.687 126 136 52
2.7952 -31.3998 124.611 135 79 91
17 -30.5676 124.595 143 149 77
29.055 -11.2604 125.31 113 125 46
29.3248 -10.7187 125.33 107 120 48
33.7953 -3.68547 125.59 91 106 67
-7.96594 -31.1501 124.226 121 54 76
23.8476 -20.9679 124.52 135 141 80
30.0655 -8.85593 124.966 88 102 59
1.48674 -31.5412 123.754 144 87 134
2.80798 -31.3973 123.756 135 74 98
21.3035 -25.1442 123.942 133 146 105
29.8011 -9.39896 124.513 79 92 55
32.0936 -5.37581 124.658 45 59 69
33.7324 -3.44706 124.726 108 125 104
20.2331 -27.1203 123.446 158 162 174
22.0912 -23.5705 123.573 123 142 146
25.796 -18.7948 123.741 116 127 48
26.3115 -15.0769 123.877 142 144 74
30.1148 -11.6699 123.994 67 70 32
-7.99355 -31.0357 122.935 106 64 86
11.7042 -33.1374 122.82 76 92 95
19.3452 -28.3507 122.979 158 163 189
30.162 -9.08399 123.656 88 76 28
32.2977 -5.95906 123.765 47 61 60
33.8213 -3.68024 123.845 121 145 167
12.1293 -33.0523 122.399 119 138 157
20.0672 -27.8563 122.571 162 169 167
25.3879 -18.8739 122.882 106 117 52
30.4782 -8.65417 123.237 97 93 54
31.294 -7.01633 123.294 72 83 96
21.2679 -26.211 122.203 90 82 39
22.0706 -23.4559 122.298 95 90 82
25.9631 -17.9218 122.486 99 112 47
28.2897 -14.2113 122.612 137 137 116
30.4041 -11.1255 122.717 135 136 35
30.175 -9.08139 122.789 132 130 45
33.6732 -4.58115 122.941 86 101 108
19.742 -28.1549 121.714 153 158 128
20.6765 -27.0325 121.751 101 100 60
24.9011 -18.7283 122.031 90 106 53
32.7052 -5.75801 122.466 117 131 148
26.0069 -16.7086 121.669 81 99 40
30.1854 -11.7783 121.831 139 140 38
30.8077 -8.22133 121.95 95 85 50
5.67142 -32.7097 120.719 65 90 195
6.00767 -32.4082 120.729 64 89 194
17.2186 -30.9892 120.774 96 106 53
20.1324 -27.9604 120.872 123 125 61
31.2012 -8.02338 121.522 61 63 62
22.0503 -25.8212 120.517 140 142 44
22.1919 -24.969 120.545 143 140 46
23.445 -20.9268 120.674 64 78 77
30.43 -11.1203 120.989 140 137 44
3.77323 -32.501 119.873 74 104 171
5.5543 -32.3813 119.878 74 103 183
22.887 -21.8701 120.217 49 50 47
30.6709 -9.11025 120.619 135 125 63
7.20827 -31.9346 119.467 112 120 174
23.4578 -20.9242 119.819 35 47 45
30.4109 -11.0013 119.696 140 136 45
30.6838 -9.10765 119.752 135 126 62
20.3825 -27.3251 118.772 87 98 35
29.4607 -12.1604 118.796 124 117 49
30.5025 -9.87996 118.863 131 128 50
-10.7539 -32.0588 117.717 97 115 58
14.2076 -32.4041 117.769 152 156 46
30.1218 -11.4233 118.386 112 109 41
30.5858 -10.1097 118.424 131 125 49
24.9651 -18.7155 117.744 72 92 110
25.7599 -17.1178 117.789 144 153 158
29.4736 -12.1578 117.933 105 97 37
30.4751 -11.1113 117.964 125 119 38
14.5561 -32.1021 116.932 157 152 45
24.2586 -20.5291 117.266 86 100 84
29.8265 -11.8462 117.51 81 79 21
23.8837 -20.7215 116.832 92 108 111
25.9292 -17.5669 116.919 153 158 183
30.5328 -11.2224 116.665 122 121 40
12.3584 -32.1925 115.652 94 93 39
14.9929 -32.0148 115.668 151 146 46
18.3042 -30.0746 115.728 73 54 32
23.8571 -20.6072 115.979 104 121 136
26.2075 -17.0311 116.075 153 157 178
28.8455 -12.8875 116.185 130 108 49
30.5074 -11.1048 115.803 130 116 42
-7.87101 -31.0111 114.73 163 173 203
34.2374 -5.96505 115.505 151 158 188
12.3358 -32.0805 114.384 99 97 30
18.3633 -30.1792 114.458 100 86 50
23.9156 -20.7151 114.694 114 130 158
24.7849 -19.3498 114.728 133 139 169
29.0193 -13.3411 114.882 134 110 44
-1.39778 -31.9944 113.883 115 122 35
11.9227 -32.1631 113.956 108 102 53
24.3033 -20.5201 114.272 133 146 168
32.117 -7.72563 114.587 41 44 61
24.7977 -19.3473 113.872 155 157 184
33.7182 -5.69028 114.204 151 164 182
-11.16 -30.9386 112.982 79 85 46
18.0456 -30.4752 113.181 147 127 57
29.4613 -13.2563 113.593 131 92 51
30.2312 -11.524 113.632 130 90 52
32.4408 -7.29357 113.729 64 80 100
18.4287 -30.2825 112.765 134 114 58
24.957 -18.4763 113.032 156 157 184
2.86368 -32.2113 112.194 89 95 29
3.28831 -32.1268 112.199 131 136 48
4.18073 -32.0671 112.206 151 151 40
32.4538 -7.29096 112.861 60 75 100
33.5016 -6.35089 112.886 145 159 180
2.40108 -32.1854 111.764 59 49 21
4.23079 -32.1747 111.778 147 148 42
15.5081 -32.0278 111.866 109 91 33
18.4012 -30.1716 111.921 137 118 55
32.4667 -7.28836 111.993 56 71 93
20.0785 -27.385 111.134 38 34 24
24.218 -18.8597 111.304 77 76 99
33.4832 -6.23015 111.584 144 155 175
19.151 -28.5058 110.684 79 59 51
20.5427 -27.4103 110.713 50 38 19
-17.1598 -32.2391 109.877 138 146 155
32.5243 -7.40091 110.689 55 68 88
32.7973 -6.85458 110.699 92 109 126
33.4583 -6.11067 110.716 142 156 178
21.3177 -27.0223 109.453 106 51 41
23.5457 -21.9786 109.541 115 33 55
32.2645 -7.94385 109.811 37 37 57
33.4713 -6.10806 109.846 145 156 180
19.3765 -29.045 108.985 103 62 56
20.1312 -28.6615 108.997 45 30 35
22.0406 -26.5274 109.043 121 42 52
29.9106 -11.7067 109.306 61 20 34
30.5659 -10.9702 109.322 96 21 48
34.1019 -5.24466 109.429 152 160 181
27.1599 -16.8463 108.785 104 23 53
28.3823 -15.1614 108.818 56 27 46
29.9555 -11.8203 108.873 68 30 44
30.2638 -11.3948 108.882 80 23 44
33.1032 -6.30107 108.536 127 148 167
19.4354 -29.1499 107.714 111 43 62
20.4082 -28.1391 107.735 44 20 31
24.5952 -21.059 107.855 98 28 55
25.2787 -20.4488 107.869 63 30 47
26.9843 -17.6023 107.917 63 23 40
28.2792 -14.8178 107.96 38 24 45
2.52176 -32.2791 106.637 35 28 29
16.6209 -32.3844 106.805 36 33 45
22.8135 -24.8457 106.946 105 24 55
22.9809 -22.8018 106.966 102 23 56
23.3217 -22.4976 106.972 99 24 57
30.0976 -10.8141 107.156 104 95 100
20.1691 -28.6539 106.457 64 35 57
26.0129 -18.6311 106.61 47 60 81
21.9099 -24.7877 106.084 67 33 44
25.2261 -20.2202 106.16 27 26 40
27.0762 -15.1701 106.221 77 73 96
26.5104 -16.1264 105.776 142 152 174
26.6988 -15.3638 105.784 131 139 163
29.6156 -10.6603 105.853 156 155 175
31.4728 -8.0928 105.894 114 124 162
33.8794 -5.78244 105.941 153 160 187
-17.5265 -31.2235 104.664 139 141 152
27.0501 -15.0538 105.36 147 153 165
30.7439 -8.60083 105.447 129 104 125
15.4019 -32.6287 104.677 64 34 53
21.8893 -24.6736 104.808 127 131 149
25.1279 -19.8806 104.878 107 116 152
26.6336 -15.1338 104.923 155 162 182
17.4648 -30.9397 104.292 116 122 136
24.2262 -21.1308 104.431 86 80 107
29.9053 -10.1139 104.561 108 56 80
31.5305 -8.20511 104.592 88 82 121
14.1623 -32.877 103.814 105 33 61
17.4308 -30.8303 103.869 121 133 159
-17.9878 -31.1928 102.916 124 132 153
31.5435 -8.20251 103.724 55 43 89
32.3233 -6.447 103.741 142 151 183
-1.07445 -31.2185 102.739 123 77 55
24.7613 -18.7535 103.163 159 160 188
26.7828 -16.7979 103.198 161 164 183
23.4899 -21.5127 102.71 58 33 69
25.493 -18.2512 102.746 160 162 190
26.2187 -17.75 102.758 160 162 191
32.724 -6.24739 102.878 143 146 170
-1.48953 -31.3006 101.874 84 56 37
8.36021 -32.9911 102.031 46 30 43
22.0524 -22.5081 102.259 162 140 149
24.6955 -18.5259 102.304 155 159 184
7.14563 -33.3505 101.586 95 37 61
19.5016 -27.8506 101.789 160 167 188
22.3997 -22.2021 101.837 129 91 109
23.5027 -21.5102 101.855 58 34 75
25.4275 -18.0233 101.887 160 164 186
31.2975 -8.74209 101.984 69 34 60
-5.22986 -31.2066 100.952 109 48 54
-4.3237 -31.1469 100.967 83 33 44
18.9525 -28.7787 101.356 161 165 192
24.7476 -18.6359 101.447 159 156 181
28.2178 -13.0055 101.502 65 33 68
32.432 -6.67404 101.568 61 57 96
5.12451 -32.8182 100.701 118 33 61
19.9722 -27.8744 100.949 163 164 194
22.4918 -22.4219 100.985 125 88 109
27.1533 -15.1546 101.055 75 34 66
23.1805 -21.8112 100.568 65 39 79
24.6253 -20.8141 100.592 135 99 132
25.0706 -18.2126 100.165 102 67 101
27.1272 -15.0383 100.193 64 39 65
23.6135 -21.7266 99.7216 65 25 56
24.5988 -20.6999 99.7359 83 39 69
24.3909 -18.825 99.7255 76 34 67
25.6856 -17.3712 99.744 110 73 100
-16.5116 -31.1449 98.5872 168 171 176
25.1227 -18.3226 99.308 59 28 65
26.1452 -16.075 99.3174 71 36 68
27.1401 -15.0357 99.3315 86 59 99
28.9409 -11.033 99.348 67 33 71
10.6816 -31.8271 98.6721 174 177 204
11.4803 -31.5511 98.6859 174 177 197
21.7799 -24.1037 98.8443 163 160 187
23.285 -22.0287 98.8625 67 34 61
24.5724 -20.5857 98.8798 63 30 64
25.4724 -18.0143 98.884 59 28 60
28.9473 -11.0317 98.9152 58 33 74
34.4195 -4.31194 98.9855 152 162 183
9.17129 -31.426 98.2159 175 176 201
20.2079 -25.9483 98.3983 164 161 196
32.9486 -5.33473 98.5271 153 165 189
19.4384 -27.5113 97.9678 164 162 181
20.1153 -26.9078 97.9773 166 150 172
29.1537 -11.6047 98.0571 57 49 82
23.121 -22.7737 97.5834 76 30 57
24.6308 -20.6935 97.5988 61 27 56
25.4916 -18.0105 97.5969 60 26 64
29.4298 -11.0622 97.6263 97 103 143
30.5507 -9.00597 97.6341 127 140 166
20.1869 -25.8345 97.1209 107 59 80
25.2038 -19.7456 97.1755 62 32 62
25.8023 -17.5893 97.1708 63 32 68
9.02677 -30.9855 96.5073 174 180 203
16.7033 -30.9754 96.6672 66 47 92
19.1424 -29.0912 96.7017 166 150 167
19.4574 -27.5075 96.6947 145 101 110
20.3132 -26.163 96.7009 88 42 78
24.6043 -20.5793 96.7422 59 29 57
25.5526 -19.4384 96.7521 57 30 55
25.5044 -18.0079 96.7388 59 31 58
30.177 -9.19983 96.7603 156 163 191
-0.656617 -31.9652 95.8853 132 142 173
14.8245 -31.932 96.2132 63 35 66
26.3392 -15.1893 96.301 57 42 74
20.4058 -26.38 95.8547 65 29 64
25.8606 -17.6982 95.885 54 36 68
29.5714 -11.4024 95.9017 158 162 193
-16.5516 -30.9105 94.6678 152 151 58
9.04584 -30.9817 95.2302 177 180 213
14.8372 -31.9295 95.3674 60 35 67
23.257 -21.7959 95.4429 51 31 61
23.7429 -20.6276 95.4409 53 29 59
25.7474 -16.0301 95.0048 98 102 137
-10.345 -32.0965 93.5203 78 37 47
22.737 -21.5399 94.1458 56 32 62
25.5037 -17.8875 94.1622 88 94 136
20.6968 -25.8516 93.7294 76 33 61
22.3387 -22.9267 93.7278 56 31 64
22.7433 -21.5387 93.7183 56 33 67
25.5101 -17.8862 93.733 131 135 163
23.0185 -21.0075 92.8616 69 68 115
26.586 -15.7473 92.8681 160 169 193
-16.4077 -31.124 91.6275 153 157 116
21.9774 -23.1162 92.4415 73 67 114
22.1593 -22.3674 92.4341 104 104 155
15.8662 -29.7426 91.9725 100 85 122
22.348 -21.6157 91.9991 146 146 174
22.9916 -20.8932 92.0031 141 143 174
-16.4439 -31.0101 90.7544 147 154 108
16.885 -28.8379 91.5584 136 124 161
23.5635 -19.9445 91.5731 159 164 193
24.5519 -18.913 91.5802 160 164 188
23.4714 -20.9191 90.732 162 166 190
24.947 -18.7162 90.729 160 163 191
25.2804 -17.0867 90.7071 162 166 190
25.8901 -16.2441 90.7072 163 169 192
16.9447 -28.9432 90.2884 64 40 70
19.7308 -26.7484 90.3191 64 59 103
19.5767 -26.3081 89.881 95 100 154
23.9442 -20.9461 89.8894 160 169 192
23.9584 -18.427 89.8389 161 170 193
25.4016 -16.0961 89.8304 160 167 199
26.5529 -15.5111 89.8494 154 166 190
16.0267 -30.0612 89.438 160 151 174
24.0043 -18.5383 89.413 160 162 182
27.9746 -13.0503 89.4058 158 169 195
8.2541 -31.0215 88.8214 156 152 187
19.4689 -25.9757 89.0201 142 146 175
20.9066 -24.9842 89.0381 141 144 164
24.1292 -18.8747 88.9944 150 150 176
25.07 -16.402 88.9667 141 142 161
8.73181 -31.0439 87.9831 141 139 173
17.9091 -27.8138 88.1672 89 85 109
18.9244 -26.9077 88.1749 114 113 137
24.03 -18.5332 87.6961 110 107 137
28.0781 -13.2741 87.6864 154 165 190
-2.73198 -31.07 86.8002 163 164 165
17.8813 -27.7018 87.3139 112 109 142
23.4829 -20.797 87.3064 117 115 148
17.9345 -27.8087 86.4682 122 122 154
23.4092 -19.2543 85.9791 109 108 121
28.4498 -12.9589 85.9623 139 149 139
27.8422 -13.806 85.5353 126 137 108
-1.27823 -31.1393 84.696 126 93 66
17.9535 -27.8049 85.1939 119 121 146
20.5642 -23.8675 85.1633 112 101 103
20.7509 -23.1183 84.7207 104 88 89
29.392 -10.3311 84.6203 162 166 193
19.9769 -24.6939 84.3156 104 84 87
16.9178 -28.5968 83.9101 94 85 102
20.7236 -23.0047 83.8618 100 85 92
19.9897 -24.6913 83.4631 98 89 105
24.0941 -18.5203 83.4037 109 109 123
21.6798 -21.8648 83.0019 111 102 111
24.4043 -18.0992 82.9711 120 124 150
19.6626 -24.9923 82.6092 85 80 115
20.4422 -23.4164 82.5837 100 97 130
21.7324 -21.9736 82.1515 108 105 117
19.1573 -26.0369 81.7749 84 80 112
22.0006 -21.4439 81.7148 113 114 138
23.1306 -19.5481 81.6885 134 135 155
19.6817 -24.9885 81.3306 101 99 131
20.7619 -22.997 81.2984 121 119 140
16.9215 -28.4787 80.9328 106 100 128
22.761 -19.7398 80.8245 130 127 141
23.1037 -19.4332 80.8255 134 125 135
19.1764 -26.033 80.4981 97 86 100
5.1649 -30.9281 79.7597 144 142 168
22.4314 -20.0437 79.9661 106 97 112
19.2294 -26.1404 79.6524 102 87 96
22.3581 -19.818 79.526 109 98 103
29.6691 -10.8912 79.0176 161 166 193
17.1158 -28.9088 78.8323 110 97 94
18.2254 -27.0455 78.7999 110 92 96
19.2018 -26.0279 78.7956 110 97 118
21.6461 -20.3162 78.6614 117 98 77
22.6339 -19.284 78.657 120 99 106
23.7028 -18.4753 78.6642 108 81 64
24.5754 -17.1007 78.6422 106 80 77
22.9832 -18.9757 78.2281 118 96 106
23.9734 -17.9411 78.2233 108 78 65
29.1802 -10.7387 78.1278 162 167 189
21.6589 -20.3136 77.8037 110 79 70
22.6467 -19.2814 77.7985 105 85 100
23.6759 -18.36 77.7993 109 81 66
-20.0457 -29.8918 76.2099 101 110 122
18.2444 -27.0416 77.5241 121 96 95
23.9862 -17.9385 77.3638 115 80 79
11.6803 -29.988 76.9744 127 110 124
21.6717 -20.311 76.946 106 79 90
22.6994 -19.3912 76.9462 103 83 100
23.6888 -18.3574 76.9403 105 75 74
24.3362 -17.6295 76.9342 102 78 102
26.4792 -16.0079 76.9471 109 114 144
18.3039 -27.1475 76.2547 105 88 102
22.7584 -19.4997 75.6653 107 81 97
23.7872 -18.579 75.6647 99 74 89
24.6598 -17.2049 75.638 118 111 144
18.2762 -27.0353 75.3979 105 84 96
26.1606 -16.3111 75.2266 124 123 151
22.811 -19.6095 74.8139 106 75 95
23.8 -18.5764 74.806 97 71 82
24.7121 -17.3154 74.7847 110 102 124
25.4001 -16.6994 74.7839 107 109 133
26.7389 -15.3522 74.7756 131 133 156
33.4821 -2.98233 74.042 155 166 183
33.9857 -3.13889 74.0694 150 161 180
22.8238 -19.6069 73.956 108 53 71
23.8524 -18.6865 73.9543 101 52 86
24.4601 -17.8464 73.9393 114 87 138
25.7572 -16.3887 73.9231 124 119 152
26.7845 -14.1288 73.8584 135 134 166
32.5945 -3.02234 73.5708 158 168 187
33.5267 -3.09918 73.612 154 162 183
26.0297 -15.8521 73.4782 134 120 143
25.8792 -15.3961 73.0192 132 94 126
26.5624 -13.4401 72.9526 138 122 160
33.6158 -3.33281 72.7527 150 154 189
21.4917 -22.1391 72.7379 118 24 63
22.0153 -21.0819 72.7076 117 23 57
24.2543 -18.4882 72.6728 118 24 60
25.1073 -14.4503 72.5097 124 43 85
22.9289 -19.8263 72.2547 121 26 62
23.9176 -18.7938 72.2446 121 23 63
24.8294 -17.5337 72.2198 119 20 60
27.9957 -10.963 72.0244 162 154 187
33.6669 -3.44818 71.8866 146 157 180
21.5045 -22.1366 71.8826 121 47 92
23.924 -18.7926 71.8154 119 25 59
24.9829 -16.6587 71.7521 121 22 62
26.2359 -13.7464 71.6576 119 24 64
-8.98912 -31.1091 70.6181 59 21 43
5.36899 -29.942 71.1691 105 41 55
19.8281 -24.9591 71.5284 125 54 132
22.9814 -19.936 71.4047 125 48 73
16.8109 -28.9691 71.1813 134 71 79
22.9878 -19.9347 70.976 127 68 77
33.1828 -3.28795 70.5469 145 161 189
21.4837 -22.0213 70.5922 139 75 106
22.0935 -21.186 70.1462 131 76 108
27.9818 -8.12698 69.7045 118 22 63
28.448 -8.16289 69.7267 116 25 63
32.4551 -3.79924 69.6681 158 166 193
33.234 -3.40344 69.681 144 154 190
22.06 -21.0729 69.7103 144 87 140
25.7736 -14.9303 69.5406 146 94 135
-0.590585 -29.9316 68.7635 99 41 57
-18.3866 -31.1473 67.6045 126 129 149
22.0728 -21.0703 68.8539 130 31 70
17.4029 -28.0307 68.6074 124 25 64
25.7929 -14.9264 68.2468 136 56 87
26.79 -13.8835 68.233 118 22 61
28.901 -8.07709 68.0008 116 22 64
-18.3736 -31.1447 66.7329 123 129 147
5.43052 -31.1109 67.8137 129 24 60
30.0711 -7.48451 67.5848 94 39 76
33.58 -2.96267 67.4861 143 149 184
17.3344 -27.8093 67.7413 125 38 90
18.5678 -26.2703 67.7088 121 51 96
25.7665 -14.8098 67.3759 119 23 64
26.8029 -13.8809 67.3697 120 20 63
-18.4104 -31.0306 65.8525 123 127 152
5.4867 -31.2175 66.9681 129 24 59
17.1651 -28.5471 67.3514 133 76 118
4.04494 -31.0318 66.4627 129 22 61
17.1714 -28.5459 66.9269 144 101 137
18.5401 -26.1578 66.849 150 112 135
25.74 -14.6932 66.5046 119 29 73
26.8158 -13.8784 66.5064 123 20 63
16.8806 -28.9551 66.513 151 103 152
18.5528 -26.1552 65.9974 144 86 115
25.3683 -14.8861 65.6354 135 88 124
27.6674 -11.0244 65.5096 116 22 58
3.71295 -30.151 65.1092 136 70 112
16.812 -28.7344 65.6469 150 88 129
17.1499 -28.4328 65.6445 136 72 118
20.998 -22.9496 65.4909 140 75 100
21.1791 -22.1997 65.4535 140 78 107
24.8032 -15.8448 65.2357 135 95 127
28.3689 -10.3994 65.071 118 25 56
23.644 -18.9664 64.9429 145 74 99
24.1723 -17.9011 64.902 140 78 98
26.3784 -13.8401 64.7555 136 97 110
17.1219 -28.321 64.7863 132 34 65
18.5719 -26.1514 64.72 125 30 65
24.9634 -14.9636 64.3256 141 90 117
31.2829 -8.24486 64.2089 105 37 49
-18.2249 -30.2655 62.7602 109 114 66
6.16275 -30.4936 63.9648 159 104 112
20.9771 -22.8346 64.2002 121 23 65
21.1982 -22.1958 64.1704 121 24 66
24.5569 -16.3769 63.9639 120 37 78
24.9699 -14.9623 63.894 130 54 86
26.6588 -13.2984 63.8705 134 69 94
28.1966 -11.1691 63.8101 139 70 93
30.9792 -8.67249 63.7869 91 22 46
24.3377 -17.024 63.5639 116 23 62
25.0158 -15.0751 63.4718 121 26 59
31.0624 -8.90323 63.3718 95 24 47
20.1686 -24.2995 63.4004 124 60 63
22.6811 -19.9935 63.2446 113 48 96
-12.0834 -30.1527 61.7494 99 105 130
-11.1175 -30.2044 61.801 107 112 132
-4.68175 -29.9009 62.1022 70 57 47
1.77966 -29.8207 62.4194 142 55 78
6.00852 -30.0517 62.6456 128 37 69
24.6157 -16.4864 62.6813 122 47 82
25.0682 -15.1864 62.6183 120 36 69
27.8689 -11.4766 62.5139 123 26 61
31.462 -8.70416 62.5107 110 38 51
13.2423 -29.912 62.5721 145 87 113
16.775 -28.5071 62.6562 148 90 143
20.1813 -24.2969 62.5473 138 92 102
24.3965 -17.1334 62.2825 139 88 134
32.2597 -4.20931 61.8178 161 161 189
-12.0705 -30.1501 60.881 109 104 128
-11.1525 -30.0906 60.9235 120 115 130
-4.71507 -29.7876 61.2291 100 94 46
25.9992 -13.9123 61.7165 132 67 87
26.998 -12.8668 61.6968 118 29 61
-8.78558 -30.1076 60.6113 110 101 108
16.8283 -28.6137 61.8162 150 97 126
22.7067 -19.9884 61.5296 143 101 145
31.5578 -8.93217 61.2293 118 60 63
-6.04296 -29.9289 60.3066 98 96 102
12.3365 -29.8572 61.2459 131 57 97
20.2405 -24.4037 61.2773 136 63 74
30.9064 -9.67092 60.8128 115 42 49
-12.051 -30.1461 59.5785 87 64 74
-11.0852 -30.1979 59.632 93 72 69
-8.67814 -30.3269 59.7655 87 72 65
16.5032 -28.9127 60.9703 143 66 85
18.113 -27.1846 60.9336 139 56 91
19.6073 -25.1202 60.8675 123 37 68
-17.2395 -30.1939 58.877 80 81 96
9.69247 -30.0292 60.2689 164 95 154
20.2132 -24.2905 60.4145 119 25 60
30.8427 -9.43687 59.9262 121 65 66
24.5817 -16.2504 59.647 119 31 64
24.7287 -15.3728 59.5925 120 31 66
24.9948 -14.8353 59.5683 122 35 69
31.2081 -5.03023 59.1993 161 165 185
-18.004 -30.5864 57.9921 83 88 90
19.5861 -25.0059 59.579 89 37 55
33.4732 -3.60671 58.7804 149 158 190
-17.6583 -30.2758 57.5517 71 81 89
25.432 -14.7513 58.7217 113 25 59
30.5526 -9.86067 58.6404 135 97 115
30.5183 -7.02649 58.4336 154 140 169
-2.77627 -30.9583 57.9626 148 101 57
30.5248 -7.02518 57.9983 160 157 183
6.50327 -29.9535 57.9586 115 32 66
15.6104 -30.0264 58.4553 99 77 89
19.1849 -25.0848 58.2835 110 100 49
26.4031 -13.5905 57.8249 103 28 49
27.2462 -12.0848 57.7592 110 25 56
31.2305 -6.39562 57.5544 166 171 189
22.3422 -20.0589 57.6539 103 46 47
25.7967 -14.4378 57.4227 92 54 40
32.7207 -3.9971 57.0209 157 168 194
17.0137 -28.9284 57.6007 145 132 97
30.1152 -9.82044 56.8796 148 135 172
31.3628 -5.37496 56.6134 166 171 198
31.9871 -4.50923 56.5824 163 169 194
32.689 -3.87792 56.5733 160 170 195
26.4225 -13.5866 56.5287 112 73 40
32.3445 -4.19229 56.1412 165 171 194
33.0086 -3.44266 56.1208 156 166 192
6.48554 -29.8387 56.2377 69 60 65
8.78022 -31.0334 56.4565 101 97 115
18.2322 -26.1 56.6021 138 100 41
31.7262 -5.0572 55.7363 168 171 187
32.3127 -4.07316 55.6934 167 170 188
33.3666 -3.12528 55.6791 150 158 181
10.9798 -30.8306 56.1374 174 176 199
12.7045 -30.6046 56.2161 181 181 207
30.213 -8.69263 55.4968 161 166 187
31.0672 -7.17054 55.4266 166 170 190
32.6321 -3.63799 55.2405 158 164 183
15.1883 -29.9934 55.8828 187 192 213
16.5793 -28.8974 55.8753 180 178 169
19.7018 -23.9161 55.6615 116 83 59
26.3633 -13.3536 55.2103 147 93 59
31.0737 -7.16923 54.9916 166 169 194
31.7777 -5.17214 54.8751 165 167 198
32.6769 -3.75471 54.8149 159 165 187
30.2645 -8.80616 54.6397 164 170 194
18.2576 -26.0949 54.8981 142 101 52
19.9746 -23.3871 54.7803 142 124 63
33.3927 -3.12004 53.9308 163 166 192
31.4853 -5.60054 53.5835 150 159 164
33.7954 -2.91943 53.0631 163 165 182
-10.1484 -28.8058 52.1934 154 145 123
-1.68469 -30.0273 52.7842 140 91 63
19.9938 -23.3833 53.4983 153 134 62
25.7213 -16.635 53.2788 147 101 56
32.0074 -4.37962 52.6415 165 168 188
33.7259 -2.68149 52.6023 167 167 178
-11.5443 -28.8365 51.6797 154 141 104
-1.10696 -30.271 51.9769 141 92 60
6.55113 -31.0057 52.4878 64 23 42
25.5771 -16.1788 52.3717 141 79 57
31.7033 -6.18137 51.8997 162 169 189
32.4097 -4.17919 51.7746 162 172 184
32.9669 -1.69122 51.6003 167 168 174
1.26367 -30.3975 51.6972 128 80 49
2.54437 -30.1443 51.7517 131 75 60
25.3964 -16.9392 51.994 138 86 58
25.8104 -15.528 51.9001 124 68 59
29.2265 -9.61884 51.606 119 127 70
32.3396 -3.94213 51.3136 164 170 189
32.1208 -0.458948 51.0083 166 169 179
5.80296 -31.3897 51.6218 68 28 46
31.7211 -4.80765 50.9129 167 170 198
32.7115 -0.855332 50.6373 154 149 149
-16.4239 -29.5475 49.7074 177 180 190
3.49811 -30.1928 50.9546 109 51 55
14.454 -30.2563 51.6156 183 188 213
16.2642 -29.077 51.6233 185 180 185
25.2816 -15.2654 50.9837 114 104 83
27.8875 -10.9803 50.7738 108 112 46
28.8526 -9.81279 50.7319 120 131 92
31.2923 -7.62267 50.6909 166 167 195
6.32584 -31.5211 50.8105 59 27 44
7.50941 -31.0507 50.8413 63 25 43
26.0096 -13.4206 50.4372 115 100 67
28.9352 -8.68628 50.2057 138 150 147
32.6477 -0.61415 49.7342 109 102 106
5.73537 -31.1676 50.3173 63 29 47
13.5858 -30.312 50.7185 115 104 131
14.3842 -30.0362 50.743 171 177 212
18.8551 -23.8441 50.4762 151 129 98
24.8417 -16.5624 50.2066 104 85 71
30.6483 -7.00038 49.7281 164 170 185
31.1973 -4.53058 49.5469 169 173 193
33.4461 1.18145 49.1872 122 127 119
6.63253 -31.1072 49.9395 50 27 38
16.9308 -27.1823 50.2235 166 150 150
24.9164 -15.4569 49.6836 120 113 62
26.787 -11.6806 49.467 84 63 47
32.5069 -0.133723 48.8046 90 79 94
13.5571 -30.2007 49.8571 73 57 79
22.3606 -21.0126 49.5858 143 113 60
24.3362 -18.9507 49.5249 115 88 48
26.029 -13.4167 49.1402 113 91 47
30.4296 -6.29585 48.7814 164 168 188
31.1718 -4.41011 48.6604 164 168 192
33.9664 1.02356 48.3521 142 145 120
16.9435 -27.1797 49.372 131 95 93
17.7575 -25.7203 49.2923 153 110 71
18.8337 -23.7293 49.1815 162 140 81
32.9503 -0.0515679 47.945 70 73 83
13.5283 -30.0892 48.9952 61 38 54
26.8457 -11.7919 48.1798 101 72 53
-16.8729 -28.4161 46.5212 114 130 58
16.9563 -27.1772 48.5206 138 120 132
17.9473 -24.9722 48.383 137 71 59
18.8465 -23.7268 48.3265 150 104 59
26.8522 -11.7907 47.7466 99 67 50
32.68 -1.99538 47.2244 99 80 75
22.6089 -20.3657 47.8285 102 76 50
32.6866 -1.99407 46.7863 95 77 67
18.9402 -23.9461 47.497 131 47 57
23.0621 -19.0775 47.3099 71 51 47
24.1587 -17.0567 47.1934 32 27 38
22.6217 -20.3631 46.9714 91 60 46
23.0685 -19.0762 46.8806 71 51 48
27.1011 -11.1292 46.4007 75 54 39
28.1048 -10.0771 46.367 108 82 59
31.1337 -4.16636 46.0119 120 126 52
-14.5543 -28.2082 44.8997 122 133 67
-9.4736 -30.1215 45.4029 113 128 60
17.9581 -26.1535 46.7851 139 72 59
22.4053 -21.0036 46.5885 112 71 65
18.0861 -26.4823 46.3978 136 80 47
28.1177 -10.0745 45.499 102 77 59
31.1081 -4.04576 45.124 115 117 62
18.4317 -26.1781 45.9652 149 110 54
18.7874 -24.6884 45.847 151 110 54
-13.7055 -30.1069 43.8256 146 162 164
29.7947 -8.27551 44.5676 79 52 39
31.1212 -4.04314 44.2495 102 90 58
23.18 -19.2947 44.7607 56 46 84
31.1277 -4.04183 43.8122 85 68 56
-14.3239 -29.7435 42.8794 136 141 111
19.9668 -22.9119 44.4708 143 81 58
23.5952 -17.8899 44.2224 76 79 145
29.4202 -8.46982 43.6918 90 68 52
29.6915 -7.92351 43.6567 85 59 43
31.9458 4.7466 42.5763 108 105 120
-13.686 -30.103 42.521 83 98 81
20.8767 -21.6601 43.9807 122 46 57
23.4169 -18.6474 43.8543 65 69 109
24.3961 -16.2842 43.6881 80 83 142
29.737 -6.67376 43.1023 84 60 45
32.7455 -1.98224 42.8428 79 78 121
31.64 5.72336 42.017 108 114 125
-7.56395 -31.1861 42.5993 95 110 149
22.8962 -19.7099 43.4944 72 64 95
23.1993 -19.2908 43.4733 65 60 98
29.6657 -7.80434 42.7727 85 68 47
19.8062 -23.6571 43.25 131 95 59
23.9455 -16.2497 42.7923 70 70 103
30.2161 -6.7078 42.2654 80 62 71
32.5349 0.126617 41.7428 85 88 130
-16.8309 -29.383 40.9322 139 140 121
-13.5694 -30.3219 41.2451 71 88 79
-12.8433 -30.9038 41.352 73 91 83
-9.99762 -30.946 41.5475 121 140 177
18.4762 -26.1692 42.9839 159 133 70
19.8126 -23.6558 42.8228 127 83 51
23.462 -17.4324 42.4465 59 58 71
28.0915 -9.83241 41.9986 62 57 50
29.6787 -7.80173 41.9025 83 78 120
31.8734 -0.629038 41.3337 88 74 94
-15.2146 -29.7963 40.6461 73 90 88
-14.2426 -29.8486 40.717 73 97 111
-12.3535 -30.9281 40.9533 97 124 138
-11.0019 -30.7827 41.03 139 156 178
23.9186 -16.1334 41.916 46 44 71
30.1129 -6.35392 41.3508 92 87 99
-13.6536 -30.0965 40.3466 108 127 154
-11.8642 -30.9523 40.5549 143 163 188
20.1259 -23.2376 41.9466 146 103 53
23.2901 -18.1899 41.6502 47 47 55
25.0388 -15.4324 41.4896 52 45 72
26.3736 -12.7386 41.3074 70 84 114
28.489 -8.27391 40.9988 68 54 54
29.4976 -7.21551 40.96 71 66 87
30.8997 -4.58447 40.7887 98 49 56
31.7991 -3.16353 40.7059 107 47 74
-16.1754 -29.7413 39.7029 74 93 100
-15.2016 -29.7937 39.7748 96 117 137
-13.0172 -30.4551 39.9915 164 172 191
17.0451 -28.3354 41.8286 161 147 58
22.2033 -20.2043 41.3513 72 68 60
23.4813 -17.4285 41.1553 52 57 79
18.0409 -26.1369 41.2459 161 151 71
23.448 -17.3141 40.7106 67 77 107
23.8983 -16.0159 40.6081 63 61 76
27.922 -9.24704 40.1888 76 67 90
31.2288 -2.76699 39.75 119 52 67
-16.7488 -29.4885 38.7644 93 118 130
-15.1396 -29.9028 38.9184 164 176 199
-9.00415 -30.9904 39.4545 184 186 199
15.9215 -28.9102 40.9602 159 121 62
17.1928 -27.4833 40.9003 162 146 59
22.2161 -20.2017 40.4936 84 78 89
22.7267 -17.8159 40.2819 83 94 130
29.1288 -7.4089 39.6469 63 54 46
30.4889 -6.03398 39.5986 74 53 59
30.9965 -4.81612 39.5076 93 50 47
31.3088 -4.3826 39.4843 113 55 55
-14.1614 -29.9537 38.5557 174 178 204
19.8912 -23.7591 40.2738 159 141 66
27.0927 -12.1114 39.5598 81 84 139
27.9741 -9.36061 39.3343 71 62 75
-13.1365 -30.1159 38.2087 179 182 206
20.1176 -23.1201 39.795 153 142 73
22.4519 -19.5557 39.5839 81 68 106
23.0038 -17.2787 39.3835 89 88 141
19.8234 -23.5346 39.3904 164 152 86
22.3151 -20.4221 39.2363 75 60 82
27.9871 -9.358 38.4651 64 55 58
-13.3656 -30.6441 37.3788 180 181 197
18.1132 -26.2406 39.13 158 135 63
20.0901 -23.0064 38.9254 159 143 86
21.717 -21.2567 38.8539 92 77 62
1.46876 -30.3563 37.9647 99 99 157
22.3279 -20.4195 38.379 81 62 52
31.4955 -4.84716 37.3608 96 48 46
32.5686 0.260805 36.8898 109 112 104
18.1665 -26.3481 38.2928 150 135 72
26.8175 -12.5308 37.4192 59 58 98
17.5354 -27.0622 37.8989 165 163 132
19.7684 -23.3074 37.6512 163 143 101
31.4743 -3.34867 36.3229 94 39 50
18.1792 -26.3455 37.441 147 141 113
24.2338 -16.799 36.8336 65 76 131
31.4766 -4.72549 36.0355 79 32 44
31.9095 -3.2674 35.9073 100 52 74
32.5883 0.264762 35.5702 103 103 99
33.3342 0.783122 35.5672 122 126 116
-8.02446 -29.8362 35.5028 155 162 143
19.6017 -24.0532 36.8655 164 142 110
20.0818 -22.8888 36.7722 129 105 81
17.0935 -27.0316 36.5856 158 160 166
18.5312 -26.04 36.5803 158 164 136
19.7875 -23.3035 36.3687 149 116 89
25.2705 -14.5358 35.7965 60 61 121
26.1898 -13.2619 35.7223 63 67 104
32.3636 -0.410193 34.7482 113 111 98
33.032 0.346926 34.713 98 101 89
20.4357 -22.581 35.9077 114 88 60
21.6819 -21.024 35.8252 95 82 48
23.3543 -19.3801 35.7642 84 85 129
25.0105 -15.0724 35.4052 77 81 146
29.7439 -7.66423 34.9254 74 65 42
29.9383 -6.88295 34.8526 82 70 45
31.6932 -3.93424 34.6522 96 49 68
19.6209 -24.0494 35.5844 121 85 58
19.8003 -23.301 35.5136 108 73 51
23.4067 -19.4899 34.9218 93 100 154
30.5349 -5.8997 33.9136 88 70 53
16.0512 -29.0016 35.0275 100 78 78
19.4142 -24.6829 34.7864 141 122 72
20.4147 -22.4658 34.6086 125 68 66
21.0575 -21.7435 34.5743 92 52 55
29.7634 -7.66032 33.6199 82 72 42
29.919 -6.76202 33.5294 76 64 38
19.5997 -23.9346 34.2876 139 114 60
31.4452 -4.48081 32.9462 94 89 80
16.1048 -29.1081 34.1936 112 71 66
19.606 -23.9334 33.8605 143 122 63
22.3186 -20.1812 33.6319 69 73 119
30.1656 -6.09337 32.5987 76 56 48
29.7444 -6.17235 32.1396 71 53 44
29.5177 -6.83723 31.7633 67 55 41
18.985 -24.6487 32.6147 95 109 128
20.3065 -23.3205 32.5595 152 103 71
24.5189 -14.8013 31.8809 101 109 160
27.1307 -11.8578 31.7343 64 48 57
-16.7668 -29.126 29.9841 176 149 104
-11.949 -30.3656 30.064 154 106 61
25.9541 -13.6726 30.9925 96 85 92
26.5287 -12.7074 30.9221 72 64 71
27.0261 -11.5095 30.818 53 45 61
18.2682 -26.3277 31.4784 122 110 80
20.2453 -23.0945 31.2448 161 130 89
-10.1908 -30.0203 28.8559 146 82 71
16.9534 -28.8223 30.8251 106 87 69
18.1594 -25.9948 30.5772 118 108 67
19.2763 -24.1166 30.4372 161 154 107
-9.60752 -30.2671 28.4975 127 60 64
26.3579 -12.1273 29.1059 50 53 75
21.9032 -18.8188 29.1406 94 81 99
-8.29409 -30.0089 27.7022 131 88 112
20.5981 -21.474 28.9339 140 128 87
21.9496 -18.9302 28.7277 86 80 105
22.4766 -17.863 28.638 58 57 99
31.6822 -3.559 27.6049 152 166 173
12.8194 -29.7602 28.9134 55 43 61
17.6282 -26.9256 28.9441 117 103 72
27.3795 -11.0733 27.7558 98 97 127
32.3919 -2.92459 27.1449 171 172 157
11.0564 -29.8752 28.3614 93 88 140
26.2339 -13.0078 27.4714 102 106 114
31.6181 -3.3198 26.6944 173 178 180
32.7121 -2.48805 26.6781 168 164 130
-8.70797 -30.0902 26.3791 115 54 80
11.0691 -29.8727 27.5094 75 64 99
12.7968 -29.6473 27.62 48 29 41
29.098 -8.03241 26.2092 82 71 100
32.7251 -2.48543 25.8023 159 153 104
13.3072 -29.7807 27.2523 58 25 37
11.9671 -29.8119 26.7219 47 29 45
12.8095 -29.6447 26.769 55 23 39
14.237 -29.8305 26.9086 78 27 47
17.3212 -27.2219 26.8266 161 152 139
-12.4434 -29.0102 24.2021 133 83 46
13.2368 -29.5599 26.3671 70 24 43
19.4967 -22.0474 25.9151 170 170 186
21.2682 -19.4233 25.7234 166 169 163
28.5757 -9.12073 24.9994 90 63 104
31.2183 -4.77159 24.6577 177 171 135
-12.4369 -29.0089 23.7669 136 91 43
15.2536 -30.0965 26.1757 90 42 55
20.8708 -20.8218 25.4409 168 165 155
22.1443 -18.0476 25.1877 131 129 110
23.216 -17.2361 25.171 88 89 106
27.0448 -11.2593 24.2806 75 49 69
29.4019 -7.4787 23.9847 144 150 146
30.0234 -6.61625 23.9241 171 173 170
31.8615 -2.5199 23.5446 163 161 145
19.6372 -22.3783 24.6831 165 170 145
23.189 -17.1202 24.2916 97 94 116
28.5562 -9.0006 23.6773 91 84 112
20.8498 -20.7059 24.136 146 146 107
20.816 -20.5925 23.6888 151 140 107
23.2019 -17.1176 23.43 112 104 130
28.4521 -8.64909 22.7522 96 92 95
29.3047 -7.12416 22.6224 122 120 111
30.3155 -6.06329 22.5669 126 114 116
3.02407 -30.1668 22.6081 88 57 53
6.17789 -30.0165 22.8534 66 25 40
18.4295 -26.4133 23.4043 161 163 150
22.2229 -18.1529 22.6232 95 86 97
28.0773 -8.84353 21.8758 107 97 103
29.0851 -7.78615 21.8198 125 120 118
30.3285 -6.06067 21.6946 144 138 130
32.6825 -0.727497 21.1823 167 171 137
19.871 -22.9289 22.6333 150 132 116
23.261 -17.2271 22.1562 82 83 118
26.8149 -11.7937 21.7289 65 70 125
15.6007 -29.6764 22.7513 90 74 94
18.3614 -26.1908 22.5162 163 164 146
19.0402 -25.5844 22.4922 159 158 150
32.7725 -0.963365 20.3426 168 167 134
19.8837 -22.9263 21.7777 127 130 112
26.4415 -11.9874 20.8559 76 78 99
30.8168 -4.72083 20.2452 130 119 119
15.6134 -29.6738 21.9023 97 63 80
17.4245 -28.494 21.8968 177 182 159
25.8728 -12.9535 20.505 67 66 112
27.0638 -11.1321 20.3591 66 68 80
22.6387 -17.9515 20.4776 94 94 139
26.4151 -11.8697 19.9702 61 62 99
-18.4072 -28.223 17.9154 155 140 79
19.8004 -21.3893 20.2746 153 146 146
-16.1015 -28.019 17.6487 161 143 61
-2.06738 -28.9047 18.9881 83 54 64
19.7664 -21.2761 19.8267 143 132 129
22.6116 -17.8359 19.5977 87 94 134
23.4449 -16.3432 19.4636 81 86 134
26.127 -12.2924 18.7025 77 76 119
26.2835 -11.4031 18.1583 82 74 104
27.3209 -9.10962 17.9286 71 66 90
-10.0579 -28.7854 16.9738 119 88 41
19.9068 -21.6079 18.5973 134 125 132
-18.7149 -28.5276 15.739 145 119 64
20.2552 -21.3005 18.1555 124 118 112
26.1464 -12.2885 17.4028 116 120 114
26.1781 -11.054 17.2313 92 93 76
29.0788 -7.5383 16.9909 89 99 92
20.2616 -21.2992 17.7267 111 110 99
-12.8952 -28.7337 15.4092 143 110 55
13.5772 -28.9043 17.7876 126 137 99
19.9476 -22.9135 17.4997 110 107 85
26.0016 -11.8252 16.4567 135 127 118
-10.032 -28.7802 15.2355 142 110 47
-2.45268 -28.9803 15.9409 52 53 91
19.8548 -23.8834 17.2023 97 98 94
24.7907 -14.8688 16.3508 153 148 155
13.5899 -28.9018 16.936 87 89 127
18.0237 -26.2571 16.9526 100 98 104
19.7807 -23.6603 16.736 103 103 108
21.3476 -20.4884 16.4195 104 111 105
26.0855 -10.7017 15.4344 106 103 112
-6.74315 -28.7401 14.6558 119 76 50
19.8862 -22.687 16.1768 115 118 94
24.764 -14.7521 15.4671 137 120 137
25.8011 -13.8218 15.4257 127 111 126
32.3511 -2.17512 14.3291 163 167 146
-10.4478 -28.8614 13.9048 148 119 57
-9.57742 -28.6912 13.9587 131 95 42
19.4125 -23.8513 15.8751 125 117 86
25.8076 -13.8205 14.9935 123 109 120
32.3577 -2.1738 13.8908 154 154 124
-6.20362 -28.8754 13.8569 121 61 49
18.8998 -24.9014 15.5544 117 107 76
19.6971 -22.1269 15.221 108 101 97
22.6824 -17.8217 14.8623 78 75 76
24.7769 -14.7495 14.6032 116 100 125
25.1225 -14.4395 14.5892 121 106 129
25.8844 -12.7056 14.4048 108 97 106
26.1762 -9.57296 13.9732 99 86 101
-5.81102 -28.6779 13.4302 117 50 50
25.7725 -12.3592 13.9103 107 96 108
27.1498 -8.39782 13.4536 99 90 108
12.232 -28.8174 14.6683 115 114 135
14.5049 -28.838 14.8793 133 155 161
24.4047 -14.9425 13.7329 96 94 105
25.0563 -14.2082 13.6841 107 103 113
25.968 -11.5853 13.3802 112 106 118
29.0972 -6.04075 12.8476 76 91 81
23.8003 -15.7884 13.3706 103 109 139
26.5117 -10.4971 12.8344 126 122 144
31.2891 -3.00123 12.1608 161 165 138
16.6305 -27.24 13.9852 156 156 127
19.023 -23.9275 13.7119 61 60 56
25.5242 -12.8965 12.6664 133 133 146
27.1749 -9.75437 12.35 122 116 136
31.2956 -2.99991 11.7227 155 159 124
0.838584 -28.9309 12.3499 100 81 69
3.67171 -29.0879 12.6358 94 76 79
16.7716 -26.3856 13.444 158 158 165
22.9787 -17.2805 12.6542 130 126 144
27.4904 -9.3239 11.8796 112 106 121
18.3549 -24.5338 12.8854 110 100 87
19.5154 -22.7593 12.7261 74 71 60
20.2981 -21.1718 12.5598 82 79 96
25.9544 -11.4647 11.6239 117 108 133
31.5834 -2.44299 10.7887 133 139 85
16.7026 -26.1626 12.55 165 161 123
3.26403 -29.1683 11.3206 103 102 113
25.471 -12.6615 10.892 102 84 89
27.4706 -9.20371 10.5536 132 127 151
30.5796 -3.50996 9.97929 161 163 124
31.5579 -2.32163 9.89031 136 141 93
3.3146 -29.2772 10.9121 112 110 139
16.8035 -26.3792 11.3116 147 141 135
27.4444 -9.08483 9.66212 138 133 146
10.0922 -29.0048 10.6533 142 140 157
12.8364 -29.0509 10.9206 153 157 178
31.2641 -2.75363 8.61243 136 140 94
31.8141 -1.64344 8.49338 136 137 109
32.2054 -1.44463 8.49982 128 128 113
32.8343 -0.569939 8.42457 103 103 105
-13.7562 -28.6582 7.90207 148 119 84
26.8393 -9.94085 8.86617 132 128 126
13.3121 -29.0742 10.1169 163 169 191
31.0027 -3.305 7.79593 134 137 107
31.5133 -2.07743 7.65365 128 136 106
32.4173 -0.646963 7.51734 125 133 130
4.33183 -29.4329 8.88534 97 77 116
16.8698 -26.4843 9.6269 184 175 167
17.046 -25.7398 9.52736 157 146 128
31.7951 -1.52043 7.15448 123 134 119
13.3664 -29.181 9.28646 154 156 166
17.8686 -24.2726 8.9488 112 104 89
31.5264 -2.0748 6.77631 121 130 117
32.0387 -0.843361 6.63217 133 148 160
33.6239 2.75409 6.21959 124 122 104
13.3727 -29.1798 8.86076 148 151 166
16.8417 -26.3715 8.75282 170 172 162
17.3168 -25.2122 8.61576 124 122 98
22.4014 -17.996 7.96821 116 105 104
23.2999 -15.3974 7.64488 99 78 75
30.6319 -3.49945 6.47563 113 121 84
31.8855 -1.75582 6.3216 126 139 147
-14.648 -28.7104 5.64136 164 138 80
18.0591 -23.5209 7.99203 103 88 84
22.8811 -15.4778 7.18454 97 76 59
26.6746 -9.35364 6.58155 101 91 104
29.7013 -4.80164 6.15343 92 104 72
31.3033 -2.74575 5.98289 105 117 107
31.5008 -1.95326 5.8764 115 127 136
16.597 -26.8924 7.95817 179 180 177
17.3296 -25.2097 7.7615 168 169 131
17.8878 -24.2687 7.66597 134 121 93
22.8876 -15.4765 6.7524 94 74 73
23.6979 -15.1991 6.78715 91 74 89
24.3492 -14.4648 6.73361 95 80 97
2.33025 -27.8002 6.28202 94 87 69
5.12852 -29.0379 6.75366 108 99 99
22.5647 -17.1175 6.55087 93 83 79
29.7533 -4.91685 5.30138 83 94 69
30.6903 -3.61383 5.18448 95 101 78
17.2607 -24.9859 6.86364 169 166 106
22.8604 -15.3597 5.86586 101 101 104
29.5649 -5.70193 4.9714 79 79 73
30.1884 -4.83528 4.8933 87 86 75
31.3617 -2.86038 4.69097 98 90 87
31.9888 -1.98845 4.61235 116 107 109
32.2643 -1.43279 4.55008 116 106 108
26.6612 -9.23212 4.81818 105 91 86
18.2945 -24.0699 5.9618 105 87 77
31.8039 -2.77783 3.84413 76 76 68
16.8454 -26.2524 5.74554 114 91 79
17.1441 -25.8386 5.70775 113 93 81
29.4286 -5.22742 3.56899 69 63 72
29.7015 -4.67588 3.5062 69 65 68
30.5203 -4.39752 3.54211 73 78 72
30.7552 -3.72678 3.45617 78 86 76
-11.9801 -29.2816 2.94298 60 67 65
28.1121 -6.7227 3.24494 71 80 62
28.2659 -5.82021 3.11259 80 86 69
17.1977 -25.9463 4.87647 97 82 73
18.4761 -24.5095 4.76811 85 78 68
16.6479 -26.8821 4.5487 132 107 99
19.302 -23.0388 4.18054 67 61 62
-19.6254 -28.0905 0.669261 144 132 104
-18.7931 -27.8061 0.70592 146 134 102
17.2576 -26.0528 3.61898 55 55 69
16.6261 -26.7683 3.2476 67 59 61
16.9309 -26.3536 2.78227 98 100 79
14.4255 -28.029 0.675515 159 151 120
16.0203 -33.0971 136.323 187 205 211
17.9528 -29.7793 136.051 196 209 236
2.50165 -32.978 135.702 158 169 185
33.3472 -6.30839 136.65 149 167 151
-19.5306 -31.853 135.673 114 125 158
28.0033 -14.2036 135.453 172 179 210
-19.0905 -31.6867 134.796 113 127 158
23.5307 -18.3218 134.448 137 148 71
-19.5637 -31.742 133.92 114 128 158
23.7048 -17.7536 134.046 123 139 60
32.484 -9.07043 133.939 63 82 75
18.9364 -29.6508 132.662 172 177 211
19.5615 -26.5835 132.806 170 180 200
34.7899 -4.35825 133.714 150 161 153
-19.6061 -31.633 132.607 113 128 156
34.7458 -3.34755 133.333 114 125 108
-18.8941 -31.1011 132.184 110 119 118
27.0995 -15.0661 132.425 74 99 105
30.2248 -10.1945 132.624 107 117 63
-19.6579 -31.5261 131.732 114 126 157
28.8127 -12.8937 132.082 112 129 61
34.1315 -3.97042 132.447 105 116 64
34.1942 -2.26912 132.527 98 106 97
-13.0189 -31.9386 131.203 154 161 196
27.0082 -15.7336 131.539 132 137 150
34.0783 -5.66124 131.936 94 115 72
34.2062 -1.35927 132.136 114 128 133
-19.6393 -31.5219 130.852 112 126 156
14.9102 -31.847 130.489 90 110 68
23.3673 -22.1413 130.852 128 137 63
26.0012 -17.3792 131.046 116 133 155
29.6238 -10.8107 131.313 133 147 55
34.0437 -1.03292 131.72 112 135 137
-18.7866 -31.1956 130.418 103 117 128
13.9421 -31.8607 130.075 74 92 65
27.1357 -15.058 130.714 167 171 193
34.1129 -0.228024 131.322 118 137 169
-19.5502 -31.6205 129.966 109 125 153
-18.2858 -31.1343 129.977 80 91 99
24.1599 -20.095 130.087 119 129 147
33.5888 -6.49217 130.612 60 75 75
33.601 -1.07356 130.855 76 94 112
23.0907 -24.9727 129.454 131 140 103
23.1253 -23.355 129.525 127 138 112
23.0548 -22.3912 129.568 129 140 114
25.9701 -17.2702 129.77 139 161 171
33.1445 -3.83762 130.302 57 75 71
33.9567 -0.810317 130.429 78 100 132
22.6571 -25.8813 128.994 143 146 107
31.8316 -7.67764 129.713 128 141 55
33.4362 -6.16953 129.766 64 76 64
25.93 -17.1632 128.921 127 139 119
26.0302 -15.6158 128.986 162 170 190
29.9517 -9.54679 129.217 134 145 54
30.9247 -8.66434 129.247 134 143 51
30.8762 -8.55664 128.822 132 143 51
22.1575 -24.9729 127.766 172 176 200
-14.2455 -30.7528 127.329 118 40 75
-14.2362 -30.7507 126.891 116 39 75
26.1407 -17.4638 127.198 145 147 75
26.0163 -16.3823 127.243 150 153 101
26.2335 -15.0389 127.296 163 168 171
32.1063 -6.29966 127.615 121 132 54
32.5671 -3.54925 127.724 100 113 89
22.1125 -24.0068 126.532 169 176 184
32.7495 -2.96413 127.313 103 117 107
33.2101 -2.91863 127.312 106 121 128
15.4445 -30.9198 125.869 123 138 63
28.178 -11.5081 126.568 139 147 57
32.8828 -3.17512 126.438 107 122 72
33.2285 -2.91453 126.447 108 128 93
-14.1302 -30.8449 125.135 130 84 105
10.4559 -33.2445 124.953 120 64 78
27.1799 -14.0491 125.616 168 176 163
-14.1117 -30.8408 124.259 141 108 134
15.9383 -30.8549 124.176 134 144 69
33.6589 -2.75531 125.153 100 111 82
34.8703 -1.38956 125.199 118 135 167
31.0235 -7.74798 124.547 64 80 62
32.9195 -3.16691 124.707 123 142 144
33.5535 -2.53803 124.728 116 125 109
34.8224 -1.27952 124.77 121 136 168
26.4303 -16.1086 123.83 151 155 71
29.8967 -11.8722 123.973 74 82 39
31.9497 -5.85739 124.181 51 61 61
32.7063 -4.54149 123.794 59 76 85
34.3204 -2.12041 123.875 139 150 182
34.8408 -1.27542 123.904 129 144 175
-2.0673 -30.9136 122.495 104 42 119
30.1972 -10.6184 123.158 137 132 41
33.7527 -2.85465 123.418 146 156 190
35.1388 -0.904487 123.483 126 141 171
33.4737 -3.22051 122.973 114 124 151
16.7874 -30.5314 121.647 124 139 67
22.0486 -24.5425 121.843 94 99 44
21.9176 -23.4799 121.878 93 95 54
27.0914 -15.4821 122.14 151 154 68
29.933 -11.8641 122.258 151 149 46
30.3879 -10.929 122.289 154 151 53
32.8484 -4.74921 122.49 123 139 164
33.8283 -2.95803 122.549 139 152 185
34.1737 -2.69761 122.558 146 157 183
35.2711 -1.11653 122.609 127 143 170
27.3261 -15.0154 121.727 151 153 65
35.5692 -0.745651 122.188 126 143 172
30.1734 -9.61546 121.471 152 144 47
33.1543 -4.37811 121.638 164 171 195
33.9609 -3.1688 121.677 162 170 194
34.6514 -2.64818 121.694 150 160 183
35.3987 -2.23514 121.708 131 146 171
32.932 -5.74978 121.164 160 172 194
35.5307 -0.633382 121.325 122 140 173
22.2109 -24.7337 119.716 152 154 53
22.629 -22.0939 119.795 60 47 38
30.776 -10.6605 120.152 156 144 51
30.7851 -10.6584 119.723 155 144 51
23.4324 -20.914 118.979 41 53 68
24.0543 -20.299 118.999 62 82 68
30.8574 -8.97991 118.91 141 128 64
20.4072 -27.4128 117.939 99 105 50
23.4009 -20.806 117.703 53 67 75
18.0368 -30.7917 116.993 101 82 53
-5.82133 -31.2493 116.415 162 167 193
-3.45002 -31.7234 116.418 159 166 196
11.8782 -31.9824 116.079 119 116 80
24.7209 -18.8008 116.482 90 102 123
32.7445 -6.99003 116.389 111 127 151
-2.33149 -31.8002 114.696 135 135 132
14.9641 -32.1261 114.827 138 129 52
24.8064 -18.8972 115.2 132 141 176
24.8154 -18.8952 114.773 151 158 189
33.1184 -4.92812 115.145 164 169 197
18.546 -29.8713 113.637 110 93 54
24.1042 -20.1727 113.887 156 166 190
31.9879 -7.28628 114.222 39 43 58
24.5098 -18.2694 112.647 167 173 207
24.0125 -19.0896 112.199 161 163 185
24.3831 -20.5706 111.751 145 145 190
24.0306 -19.0855 111.345 89 81 124
-13.6774 -30.9791 110.245 139 151 167
26.535 -16.6148 110.989 115 43 61
-13.7275 -30.8726 109.37 77 72 72
22.9195 -23.8744 109.979 109 44 53
29.062 -14.1357 109.777 41 27 44
-13.7777 -30.766 108.495 70 65 45
25.1354 -20.0417 108.361 90 37 64
22.9059 -23.7635 107.857 124 28 66
-3.23087 -30.9128 106.918 102 97 40
32.0675 -8.04429 107.752 32 30 41
21.9204 -25.3849 106.975 99 28 55
28.3268 -14.4291 106.766 33 29 46
30.3702 -10.2259 106.841 109 101 106
17.4256 -30.9498 105.574 66 55 77
25.1895 -20.0295 105.806 39 31 43
28.1173 -13.1249 105.487 131 135 155
26.2623 -16.7407 104.997 169 171 201
15.9921 -31.7621 103.849 36 32 40
28.0866 -13.0145 104.2 169 169 196
33.8082 -3.92903 104.367 169 171 201
34.5585 -2.61146 104.39 159 164 194
3.08885 -31.866 103.152 127 51 53
8.8195 -32.9783 103.268 66 37 52
16.8946 -30.7988 103.449 89 95 123
32.7823 -4.70737 103.909 170 173 208
28.1048 -13.0104 103.342 154 135 178
3.10703 -31.8619 102.294 128 40 63
16.524 -30.9485 102.171 90 93 121
18.9723 -27.6599 102.236 173 175 203
20.3355 -26.6369 101.845 175 179 201
28.8798 -11.7044 101.645 120 77 109
