ply
format ascii 1.0
element vertex 1287
property float x
property float y
property float z
property uchar red
property uchar green
property uchar blue
end_header
-44.3195 15.466 27.7395 180 173 142
-46.8075 15.5462 27.6316 129 111 80
-53.2843 15.5259 27.3435 141 134 124
50.6024 9.00691 31.3035 179 184 204
48.1477 10.1416 31.2304 193 202 218
45.1553 11.294 31.1337 188 189 202
44.7706 11.5181 31.1238 185 189 200
41.4698 11.5152 30.9758 188 193 203
40.1583 11.9816 30.9322 154 159 189
38.1496 12.258 30.8512 147 161 189
37.1432 12.3965 30.8106 160 171 195
36.2915 12.7432 30.7837 147 157 183
35.2828 12.8821 30.7431 147 160 193
34.3512 13.1252 30.7092 142 155 191
33.3401 13.2646 30.6685 151 162 181
32.4065 13.5082 30.6346 147 156 162
31.2339 13.4398 30.5798 131 140 147
30.6068 13.3535 30.5489 133 144 143
14.1592 13.4548 29.8155 185 197 193
13.1155 13.5969 29.7733 187 199 196
6.95759 13.9046 29.5075 135 126 114
5.24359 13.9601 29.4325 114 111 94
-7.60504 14.927 28.8884 129 137 169
-10.4074 14.4661 28.7479 132 141 168
-11.8002 14.954 28.7014 143 151 174
-13.5971 15.6768 28.6444 136 147 174
-14.9644 15.5008 28.5774 121 136 141
-32.7442 15.639 27.7855 114 113 141
-33.7631 15.8975 27.7482 124 136 161
-36.4152 16.4356 27.6469 184 190 192
-39.3753 15.9689 27.4992 165 163 146
-45.5597 15.4891 27.2066 122 121 100
-53.3883 15.3976 26.8529 124 118 96
-58.652 16.0263 26.6376 92 76 72
55.1258 3.84619 30.8928 157 168 178
54.3736 6.6494 30.9517 166 175 184
53.5315 6.99243 30.9251 162 164 167
52.5257 7.87256 30.9088 150 135 151
51.447 8.64784 30.8857 161 148 150
49.5264 9.76614 30.836 171 163 156
48.15 10.1258 30.7857 176 169 165
47.2314 10.3659 30.7522 175 176 165
46.2367 10.5023 30.7117 190 189 170
5.24598 13.9437 28.9731 127 143 146
-3.0887 13.883 28.5944 149 144 112
-6.43563 14.8723 28.4759 150 143 115
-8.55393 14.5002 28.3678 157 143 145
-9.3237 14.3041 28.3265 154 143 148
-15.4593 15.6115 28.0925 118 111 106
-31.5255 15.5823 27.3654 118 107 123
-42.5579 15.2618 26.8561 112 110 144
-48.0503 15.5524 26.6175 83 103 94
-49.3005 15.5927 26.5623 114 122 125
-59.2849 16.0297 26.1255 108 116 78
-60.3563 15.6031 26.0629 120 126 96
54.8519 5.76678 30.4996 167 175 183
53.1495 7.20044 30.4705 136 128 139
50.607 8.97533 30.4146 124 118 122
44.624 11.2791 30.2198 132 117 119
38.1543 12.2262 29.9568 125 118 132
37.2256 12.4686 29.9226 156 154 158
36.2961 12.7113 29.8885 125 121 130
35.3657 12.9542 29.8543 133 131 159
33.2659 13.1287 29.7644 134 125 130
32.4112 13.4763 29.7372 108 102 92
31.0796 13.1995 29.6671 105 105 95
15.5435 13.703 28.9756 193 198 202
14.981 13.7212 28.9505 191 194 200
13.2052 13.6703 28.8678 187 185 201
11.4236 13.6192 28.7849 170 171 186
6.47867 13.9967 28.5721 151 162 185
4.6759 13.9458 28.4882 150 157 178
1.14096 13.9505 28.3271 128 138 130
-7.69171 14.7868 27.9526 122 115 110
-10.9901 14.4521 27.7908 134 136 147
-11.981 14.7056 27.7542 137 132 143
-14.9596 15.4677 27.6442 107 104 86
-16.7349 15.5264 27.5652 110 110 91
-32.4408 15.9329 26.8627 101 97 74
-33.6582 15.9731 26.8085 122 134 119
-42.8645 14.9134 26.3528 114 99 111
-43.4845 14.9332 26.3252 110 97 115
-51.92 14.8578 25.9379 123 130 159
-58.7553 15.8803 25.6608 116 130 93
-60.9913 15.6062 25.5495 122 128 108
51.0675 8.83992 29.9871 103 113 136
49.531 9.73456 29.9474 114 118 145
48.0799 9.99036 29.8894 111 114 121
47.161 10.2304 29.8554 121 128 116
46.0907 10.2628 29.8073 153 155 125
43.0155 11.3134 29.7021 101 111 107
41.4001 11.3636 29.6295 139 146 149
40.1652 11.934 29.5924 156 165 169
7.62174 13.9434 28.1644 143 143 134
-2.41376 13.9387 27.7025 123 118 132
-6.52195 14.7321 27.5409 103 114 128
-8.73283 14.2522 27.4226 98 114 123
-9.41099 14.1634 27.3883 100 116 120
-12.3814 14.9236 27.2779 121 132 149
-15.5484 15.4706 27.1511 118 140 131
-18.7979 15.2444 26.9937 133 149 152
-27.674 14.9744 26.576 119 126 133
-42.4485 14.6556 25.8851 153 151 135
-46.1746 15.458 25.7414 140 126 111
-48.6701 15.5384 25.6294 115 109 113
54.9298 5.84007 29.6168 165 171 177
54.3805 6.60201 29.6182 169 176 183
53.5385 6.94502 29.5912 162 170 180
52.5327 7.82518 29.5755 139 148 175
50.6116 8.94374 29.5258 139 150 169
50.2274 9.16745 29.5158 144 154 181
44.6287 11.2475 29.3293 124 131 116
32.0992 13.028 28.8104 156 172 183
30.5365 13.1853 28.7434 165 181 192
26.4445 12.9959 28.5468 178 194 196
13.3799 13.8492 27.9704 128 122 127
7.62413 13.9271 27.706 118 121 109
6.39636 13.8578 27.6465 139 135 126
1.05695 13.8109 27.397 116 113 98
-4.15307 13.9781 27.1611 130 131 134
-10.4902 14.2923 26.878 138 148 141
-11.4806 14.5457 26.8409 152 160 171
-14.5513 15.1996 26.7214 146 164 169
-23.2638 15.039 26.3113 135 127 162
-33.6533 15.9394 25.8608 116 138 128
-34.4632 15.7408 25.8162 149 170 175
-35.4841 15.9996 25.7779 178 186 191
-36.204 16.5867 25.7652 182 187 192
-41.4134 14.3783 25.4455 168 175 175
-43.5829 14.7886 25.3593 138 137 120
-45.0318 15.2905 25.3097 132 127 102
-49.293 15.5414 25.1208 116 113 101
-57.481 15.8051 24.75 131 132 135
-58.7503 15.8459 24.6925 122 122 130
-60.9862 15.5717 24.579 112 114 154
55.5941 3.66389 29.1253 162 165 167
47.4754 9.87081 28.9683 159 176 189
46.0954 10.2312 28.9166 167 187 180
45.1743 10.4716 28.8821 155 174 166
43.0201 11.2817 28.8104 155 175 168
41.4048 11.3319 28.7366 176 189 186
40.1699 11.9023 28.6992 182 193 199
38.7026 12.1613 28.6398 169 177 180
37.0771 12.213 28.5656 179 193 190
36.6901 12.4383 28.5556 183 196 191
33.8182 13.0633 28.4435 185 195 198
31.634 13.1339 28.3438 185 195 200
30.7683 12.7342 28.2889 185 195 202
16.5325 14.163 27.6736 192 197 199
5.25553 13.8784 27.1353 138 150 152
4.59537 13.7903 27.1013 144 157 157
-4.73233 13.9804 26.6713 161 171 168
-6.51713 14.6992 26.6136 171 180 177
-7.86757 14.5226 26.544 171 180 174
-8.63612 14.3266 26.5009 173 181 173
-12.0667 14.5482 26.3483 176 181 181
-14.2391 14.8403 26.257 177 185 182
-16.108 14.7901 26.1677 180 185 186
-17.5785 14.5039 26.0886 182 185 188
-36.1938 15.8934 25.2668 181 187 192
-40.5877 14.5629 25.0132 164 167 185
-42.4435 14.6216 24.9284 176 180 185
-45.0294 15.2734 24.8308 113 127 131
-46.1696 15.424 24.7828 96 107 113
-48.6651 15.5043 24.6688 114 124 111
-50.7545 15.3427 24.5652 114 122 98
-59.2748 15.9609 24.1884 134 123 103
55.3224 2.46979 28.6231 158 165 165
55.1374 3.76691 28.6619 161 165 169
54.3119 6.46579 28.7218 167 177 182
53.4696 6.8088 28.6946 170 184 188
52.4636 7.68923 28.6794 175 185 200
51.4586 8.56889 28.6641 186 195 214
50.0836 8.92776 28.6123 190 200 221
49.3892 9.47933 28.5998 193 203 226
44.6333 11.2158 28.4388 178 194 198
39.0914 11.9204 28.2028 188 196 205
30.302 12.8403 27.8214 188 198 201
26.2872 12.7542 27.6286 192 205 201
25.3437 12.9993 27.593 193 204 203
22.9812 13.613 27.5039 192 202 203
9.55933 13.3966 26.862 158 170 183
8.5081 13.5393 26.8176 154 165 172
7.54216 13.7884 26.7811 151 164 171
6.40113 13.8252 26.7285 164 179 181
4.11248 13.899 26.6231 164 179 183
3.05302 14.0425 26.5784 167 181 187
1.63785 13.7597 26.5011 164 176 180
-12.5602 14.6585 25.8635 178 185 188
-14.7339 14.9509 25.7715 178 187 190
-16.982 14.4682 25.6476 181 186 192
-17.7913 14.9394 25.6267 181 187 190
-18.9808 14.9781 25.5719 181 186 190
-24.1492 14.6987 25.3175 155 158 174
-36.6954 15.3284 24.748 183 190 190
-39.8657 14.6368 24.5729 167 163 188
-41.3058 14.455 24.4982 167 173 191
-43.4746 14.8651 24.4108 152 150 174
-49.4984 15.2855 24.1417 111 123 125
-57.476 15.7707 23.7826 121 112 82
-58.7453 15.8115 23.7242 112 105 69
-60.763 15.7611 23.627 120 115 70
54.497 5.16234 28.2378 163 169 175
48.8581 9.4794 28.1304 201 208 226
45.1033 10.3359 27.9835 194 203 208
43.0248 11.25 27.9186 192 203 201
41.3328 11.1961 27.836 195 200 204
40.0976 11.7666 27.7985 194 201 207
39.1709 12.0086 27.7634 192 199 205
38.0884 12.0428 27.7131 193 198 202
36.3857 12.7357 27.6579 190 200 203
32.8897 13.2748 27.5114 191 201 204
31.4004 12.7891 27.4223 190 199 201
16.8204 13.04 26.7371 191 197 202
15.4987 14.2728 26.7202 182 190 191
5.26031 13.8458 26.2165 188 192 193
-1.28708 14.4958 25.9288 183 187 189
-6.60345 14.559 25.6779 184 191 188
-8.13772 14.1672 25.5902 184 190 188
-13.054 14.7688 25.3784 182 189 190
-24.845 14.5924 24.8101 176 184 188
-25.2523 14.8296 24.7995 178 186 190
-27.9742 15.254 24.6857 182 191 195
-32.1186 15.5013 24.4975 179 189 187
-33.1366 15.7596 24.4587 183 191 191
-40.6852 14.4184 24.0489 161 147 156
-42.8521 14.8284 23.961 164 156 146
-43.9893 14.9785 23.9124 142 126 127
-50.6505 14.7325 23.5859 110 118 142
-51.9074 14.7721 23.5275 108 114 129
54.6829 3.85412 27.752 161 168 172
53.3272 6.56779 27.7901 172 181 190
52.3945 7.55326 27.7828 182 190 205
51.3893 8.43314 27.768 194 199 219
50.4726 8.67234 27.733 196 203 227
48.1023 9.16703 27.638 202 209 227
44.7204 10.5444 27.5279 192 200 207
42.5654 11.3547 27.4552 192 203 203
37.0841 12.1652 27.2227 189 199 203
30.2268 12.7038 26.9137 189 198 196
29.6778 12.7214 26.888 189 198 198
25.3484 12.9672 26.6893 196 200 204
23.6224 13.6676 26.633 192 203 203
14.7703 14.0644 26.2228 189 196 200
7.63366 13.862 25.8722 186 197 203
1.15535 13.8522 25.5605 182 190 192
-7.5504 14.1319 25.1529 182 191 187
-9.58328 13.8652 25.0451 181 190 189
-12.5247 13.9589 24.9073 184 192 188
-13.0214 14.0858 24.8883 185 192 190
-14.6067 14.3587 24.8225 184 190 194
-15.1984 14.3777 24.7948 181 187 193
-16.5724 14.1993 24.7219 180 185 193
-17.9505 14.0203 24.6489 183 191 195
-18.0709 14.5814 24.6645 184 192 197
-19.1663 14.7282 24.6174 185 195 198
-23.137 14.409 24.4145 184 195 197
-32.7245 15.5043 23.9955 184 192 195
-33.9432 15.544 23.9385 184 190 191
-38.013 14.5444 23.7049 185 189 180
-39.9629 14.4925 23.6092 159 148 147
-41.7141 14.6616 23.5315 129 128 114
-49.183 14.8982 23.1817 118 125 129
-52.428 14.8862 23.0253 118 129 120
49.3339 8.58313 27.2303 194 204 228
37.0864 12.1493 26.775 188 198 203
36.3124 12.6 26.755 191 202 206
35.382 12.8428 26.7193 193 203 205
31.7143 12.4264 26.5255 193 200 203
15.6443 13.6952 25.7959 191 196 201
14.4635 14.3827 25.7654 191 200 203
11.6112 13.7172 25.6014 190 199 203
9.704 12.7983 25.4733 189 199 196
9.39402 13.1353 25.4714 191 201 200
8.9115 13.2597 25.4528 190 200 202
6.97905 13.7578 25.3785 187 194 203
5.26509 13.8131 25.2976 190 195 199
4.78028 13.938 25.2789 190 195 198
2.5741 14.1187 25.179 184 193 197
-1.77098 14.5887 24.9867 185 193 197
-6.01561 14.5071 24.7779 186 195 196
-8.99427 13.83 24.6073 183 194 198
-9.85773 13.525 24.5536 183 192 197
-10.3529 13.6516 24.5345 185 192 199
-13.7029 13.98 24.3849 187 196 196
-14.9797 13.9094 24.3203 186 194 195
-17.448 13.8763 24.1994 183 188 191
-23.6381 14.5204 23.9245 186 194 191
-24.743 14.6678 23.8766 187 192 190
-25.8495 14.8155 23.8288 184 189 190
-26.3546 14.9439 23.8092 183 189 191
-28.7704 15.0219 23.6952 183 189 189
-40.1648 14.2546 23.1134 149 150 153
-50.7513 14.5869 22.6133 162 168 165
-51.9024 14.7378 22.5633 164 170 156
-53.0553 14.889 22.5133 154 163 142
-57.3606 15.8306 22.3412 169 162 132
-58.6294 15.8715 22.2813 175 163 140
58.4571 -8.1717 26.5704 159 156 147
53.6948 3.95472 26.8161 163 169 179
51.4678 8.50573 26.8869 191 202 221
50.4772 8.64074 26.8438 194 203 227
38.9462 11.6488 26.399 195 203 207
29.282 12.1659 25.9472 190 196 195
16.0403 13.4498 25.3508 189 196 201
8.12139 13.7048 24.974 193 200 206
7.32889 14.1663 24.9534 190 196 203
0.362884 14.2836 24.6177 190 197 203
-7.54558 14.0989 24.224 187 194 195
-12.3027 13.4746 23.9669 186 193 194
-13.8876 13.747 23.9002 185 194 194
-15.664 13.8032 23.8156 186 193 193
-35.7709 15.57 22.9029 180 182 186
-37.7989 14.0499 22.7438 179 181 180
-39.0306 14.0885 22.6851 174 176 168
-40.8826 14.1464 22.5969 150 154 160
-41.8119 14.5171 22.5661 144 154 161
-42.7415 14.8879 22.5354 147 158 172
-48.6572 14.7332 22.2402 151 160 186
-49.7048 14.3077 22.1722 153 164 190
-52.5293 14.7406 22.0513 150 169 177
-55.9965 15.1949 21.8998 144 158 119
-57.5739 15.5904 21.8383 146 144 98
-59.3708 15.7631 21.7573 154 138 109
52.4224 2.89174 26.2647 163 169 176
51.5588 7.84911 26.4212 186 199 211
50.1213 7.35623 26.3306 192 201 219
30.6229 12.4293 25.5736 191 195 202
16.5779 12.6581 24.8908 191 202 207
15.2554 13.892 24.8752 191 201 207
8.38335 14.0069 24.5412 195 201 205
-6.9229 13.3995 23.7627 190 194 192
-8.27688 13.2206 23.6888 187 192 190
-9.63481 13.0413 23.6147 186 188 192
-14.4768 13.7491 23.4045 183 192 192
-16.7541 13.9326 23.2997 183 189 189
-17.7277 13.517 23.2351 184 190 190
-18.9441 14.2253 23.2036 187 192 193
-28.0467 14.4034 22.7622 180 182 182
-29.3709 15.0078 22.7213 179 181 182
-30.1882 15.4837 22.7001 179 181 182
-43.4621 14.7801 22.0178 165 155 163
-44.704 14.8195 21.9582 159 152 173
-46.363 15.1003 21.8878 151 146 183
-50.852 14.4413 21.6401 129 144 184
-51.7913 14.815 21.6089 123 144 181
-52.9438 14.9662 21.5582 119 146 175
-56.6272 15.1979 21.386 124 154 142
-58.2059 15.5935 21.3241 131 150 134
-60.6581 15.0947 21.1832 144 152 145
54.3425 2.50605 25.897 158 161 161
51.4131 7.6244 25.9606 186 198 212
50.1981 7.44511 25.8929 192 200 219
31.3326 12.6048 25.1665 191 200 205
9.40117 13.0864 24.0967 190 201 205
-7.50533 13.4014 23.2697 185 188 185
-27.5377 14.258 22.3096 176 180 181
-29.5657 14.7726 22.2298 175 178 179
-42.3231 14.6132 21.5896 149 139 121
-56.6246 15.1807 20.9023 149 170 180
-57.2585 15.2007 20.8717 150 170 180
-58.947 15.4848 20.7994 158 179 184
-59.6917 15.3932 20.7586 162 183 189
-60.1108 15.6373 20.7478 163 185 190
-61.6042 15.4541 20.6661 169 188 194
53.1847 3.16567 25.4196 160 167 174
52.5854 6.18851 25.5152 176 184 196
49.6661 7.44418 25.4212 194 201 223
31.4939 12.7976 24.7335 192 201 204
30.9462 12.8152 24.7068 191 200 201
-6.51634 13.1325 22.8437 185 189 187
-7.19254 13.043 22.8061 184 187 185
-13.196 13.7867 22.5364 173 163 147
-14.2843 13.9324 22.4879 163 154 145
-15.5625 13.8617 22.421 174 176 181
-16.0613 13.9889 22.4013 175 180 179
-17.8178 13.375 22.2878 178 183 184
-29.8593 14.4276 21.7284 172 178 177
-41.4937 14.1148 21.1328 145 153 144
-43.5605 14.6354 21.0509 152 161 158
-52.1947 15.7106 20.6631 174 181 190
-51.8688 16.7285 20.7217 176 182 191
-54.4034 15.4376 20.5412 174 183 189
58.2223 -7.78786 24.7644 160 156 149
54.2734 2.36791 24.9941 157 164 162
29.3826 12.9565 24.1847 193 199 203
-6.29475 12.6663 22.3711 182 186 184
-18.7216 13.7219 21.7883 175 181 186
-39.1177 13.2269 20.7376 174 181 185
-40.4594 13.8379 20.6956 168 175 184
-41.9047 14.3385 20.6438 164 177 180
-42.7316 14.82 20.6224 166 177 180
-49.5837 15.0377 20.2856 176 188 197
-58.2127 14.8508 19.8421 172 185 186
-61.9275 15.0832 19.6643 179 192 198
53.1153 3.02769 24.5166 160 165 169
52.7863 4.11355 24.5465 164 171 176
51.346 7.47242 24.6175 190 197 212
50.0431 7.93563 24.5711 192 201 214
31.578 12.87 23.8432 192 201 206
29.385 12.9405 23.7346 193 198 206
-6.38368 12.5418 21.8969 180 183 184
-7.95672 12.8122 21.8285 176 181 183
-12.2906 13.3916 21.6328 146 140 118
-13.7819 13.7722 21.5732 91 87 126
-15.4636 13.9367 21.4947 126 143 152
-16.9336 13.649 21.4075 167 180 183
-17.8129 13.3417 21.3496 172 179 183
-50.0029 14.5759 19.7642 178 191 196
-49.997 15.2627 19.794 177 191 193
58.2041 -7.04285 23.8913 157 154 145
49.1383 7.41154 24.0571 192 202 214
-14.1834 13.9907 21.0956 82 84 127
-49.2735 13.9627 19.2941 176 187 198
-52.5057 15.3259 19.1878 180 184 196
-58.0993 14.9283 18.8835 152 169 159
-59.8991 15.1004 18.7987 157 175 168
-60.1007 15.5683 18.8087 168 171 182
-61.8129 15.1609 18.7031 170 167 159
-62.5619 15.0688 18.6607 175 170 149
52.7007 4.72918 23.677 165 175 181
52.373 5.81009 23.708 175 187 196
51.4247 7.54534 23.7359 190 198 213
-4.57463 13.227 21.0921 178 179 188
-6.37885 12.5087 20.9669 179 181 189
-12.8759 13.377 20.6695 125 125 128
-13.8706 13.6307 20.6293 79 80 114
-14.8664 13.8847 20.589 98 115 138
-16.9287 13.6157 20.4705 169 183 184
-17.7131 13.417 20.4211 177 185 188
-47.0819 13.5341 18.9076 176 187 199
-49.8983 13.9649 18.7811 178 189 198
-55.9909 14.384 18.4846 144 158 144
54.6695 2.07908 23.2144 156 152 146
50.5835 7.87302 23.2624 193 201 215
49.4416 7.79867 23.1996 193 199 218
-4.66293 13.1029 20.6187 178 182 187
-15.3621 13.9952 20.1013 146 159 173
-17.9517 14.5233 19.9901 178 186 187
-42.9255 13.1612 18.6272 176 184 185
-43.7545 13.6439 18.6057 176 183 186
-46.0371 13.943 18.5002 177 186 201
-47.7011 14.2237 18.4262 179 190 202
-48.4316 14.1319 18.384 180 189 201
-52.6071 15.1803 18.2136 181 176 190
-53.2367 15.2003 18.1817 171 168 175
-54.1874 14.886 18.118 156 156 149
-56.299 14.7223 18.0005 136 151 115
52.1558 5.46285 22.7903 173 180 189
51.3553 7.40916 22.8373 187 194 208
50.66 7.96166 22.8261 190 195 211
-7.76346 12.9621 19.9862 170 177 179
-10.5138 13.2699 19.8558 133 151 166
-12.6845 13.5603 19.7551 152 134 106
-13.6786 13.814 19.7144 116 107 115
-17.5184 13.6011 19.503 175 184 185
-27.5042 13.4646 18.9723 176 182 180
-44.2702 13.757 18.105 174 182 185
-47.6986 14.2066 17.9455 179 191 200
-48.4291 14.1148 17.903 180 190 201
-50.931 14.8808 17.8066 182 185 193
-52.6046 15.1632 17.7316 172 155 169
-53.9712 15.0918 17.6566 149 148 138
-56.1889 14.8169 17.5275 124 138 103
-60.0004 14.9367 17.3328 120 121 119
51.9054 6.63107 22.3859 181 184 201
50.7365 8.05025 22.3899 185 192 210
-6.95662 12.4772 19.5418 179 180 161
-15.3573 13.962 19.1661 147 165 183
-15.8558 14.0891 19.1456 161 178 178
-16.9214 13.5658 19.0649 169 185 185
-28.0088 13.5762 18.4785 178 183 183
-30.8323 13.2122 18.3121 177 182 184
-42.8172 13.2383 17.679 179 180 181
-43.5425 13.8319 17.6681 178 180 174
-44.0604 13.9621 17.6468 177 182 173
-46.656 13.9283 17.5078 181 186 186
-54.3859 15.3176 17.1632 137 153 124
52.3241 4.89043 21.8814 162 167 177
51.3599 7.37753 21.9472 184 189 207
50.4284 8.36267 21.944 186 193 210
-11.8725 13.0571 18.8423 160 147 145
-12.7729 13.4189 18.8113 123 111 86
-13.7673 13.6726 18.7703 66 69 77
-14.8566 13.8183 18.719 101 116 136
-15.9476 13.9642 18.6677 161 177 180
-17.324 13.785 18.5858 174 184 187
-25.8818 13.1556 18.0997 177 183 186
-32.6587 13.2515 17.7428 174 181 188
-37.0486 13.2729 17.5096 178 179 193
-40.9547 13.1645 17.2962 173 176 180
-54.9076 15.432 16.6589 129 143 112
-56.8175 14.8024 16.5273 137 139 96
-59.2499 14.9942 16.4066 135 143 121
51.836 6.4945 21.4862 180 185 201
-6.95179 12.4441 18.6113 126 124 129
-7.7562 12.9125 18.5905 77 84 100
-11.3735 12.9139 18.3961 100 89 107
-17.6319 14.1126 18.1171 176 188 188
-31.4364 13.1971 17.3314 175 173 174
-38.4809 13.0722 16.9468 154 154 172
-40.231 13.2396 16.8608 148 156 170
-42.5026 13.5375 16.7529 148 142 137
-45.9229 13.986 16.5906 136 134 123
-50.4016 14.6984 16.3839 181 188 186
-51.0293 14.7182 16.3512 184 183 187
-52.4907 15.2231 16.2968 126 122 142
-57.6655 14.5812 15.9879 118 131 81
-59.9928 14.885 15.8774 140 149 155
50.6087 7.04665 21.0017 188 192 212
-11.9607 12.9156 17.8984 100 92 114
-12.9547 13.169 17.8568 112 118 135
-13.9497 13.4228 17.8153 78 111 127
-15.5382 13.6954 17.7425 155 177 177
-17.7499 14.6566 17.6694 178 187 185
-28.3949 13.0869 17.0167 167 156 130
-30.6132 12.7024 16.878 164 150 134
-31.5335 13.0701 16.846 164 154 141
-35.6131 13.4223 16.6422 144 127 117
-36.841 13.4601 16.5775 133 116 121
-41.2608 13.4823 16.3392 133 125 139
-44.9864 13.5969 16.1431 103 101 108
-46.0246 13.8577 16.0995 106 105 118
-51.5491 14.8322 15.8476 176 165 173
-55.9638 14.9716 15.6153 100 88 107
52.1829 4.63175 20.5238 165 173 179
-5.01171 12.573 17.7944 180 183 186
-7.03851 12.3029 17.6705 158 156 162
-10.8724 12.7541 17.4835 100 96 76
-12.5484 12.9173 17.4001 139 137 163
-14.041 13.2978 17.3374 125 149 158
-16.2232 13.589 17.2327 171 182 180
-29.3941 12.6486 16.4678 128 120 110
-39.7103 13.0758 15.926 104 106 100
-40.537 13.5572 15.9046 110 108 112
-41.7748 13.5953 15.839 131 126 118
-42.7054 13.9664 15.8065 106 102 75
-45.5029 13.7102 15.6412 116 107 99
-46.7506 13.7486 15.5751 124 115 110
-47.5814 14.2324 15.5536 121 122 114
-50.5022 14.5529 15.41 181 189 180
-52.1754 14.8349 15.3326 143 133 140
51.6949 6.23716 20.1312 177 184 198
-8.42687 12.773 17.153 149 146 153
-12.546 12.9007 16.933 144 147 175
-14.4427 13.5165 16.8595 160 177 183
-15.6275 13.5537 16.7962 171 183 185
-17.3404 14.3877 16.7437 179 187 193
-51.7562 14.5752 14.8614 170 165 161
-60.0942 14.7211 14.4104 127 136 150
54.2095 2.82712 19.6528 148 156 160
-9.50615 12.901 16.6348 143 140 144
-10.9603 12.6126 16.5397 93 110 126
-11.5497 12.6308 16.508 96 108 132
-16.3128 13.4472 16.2856 173 180 187
-17.0014 13.3572 16.2429 175 184 189
-24.566 13.1441 15.8133 178 185 185
-25.09 13.9469 15.8249 178 185 182
-29.3892 12.6149 15.5194 131 131 127
-30.6058 12.6518 15.4539 128 134 134
-40.4296 13.634 14.9597 125 143 143
-41.667 13.6722 14.8931 134 139 135
-42.7004 13.9323 14.8491 108 105 102
-46.7456 13.7145 14.614 123 120 106
-52.2766 14.6893 14.3571 138 132 129
-53.3231 14.9519 14.3125 128 123 134
-57.0207 14.4925 14.0845 91 88 86
51.7145 5.4553 19.2022 171 180 192
-8.60605 12.5236 16.2005 107 98 105
-14.4379 13.4833 15.9244 113 118 116
-15.6227 13.5205 15.8603 168 178 194
-32.9437 12.8193 14.8582 166 174 174
-47.6787 14.07 14.1005 88 97 84
-51.9635 14.3179 13.8742 168 164 150
-52.6909 14.9148 13.8643 124 124 121
54.527 2.46418 18.7591 150 156 160
51.6427 5.33411 18.7464 171 181 192
-8.0171 12.489 15.7667 103 106 96
-9.59363 12.7597 15.6922 119 109 101
-10.8627 12.6878 15.6172 79 89 113
-11.9485 12.8326 15.5637 106 101 125
-12.4454 12.9593 15.5423 129 123 134
-29.9923 12.5996 14.5378 170 178 177
-30.6009 12.618 14.5045 170 177 177
-38.8789 13.2108 14.0703 98 108 85
-46.8451 13.569 13.6414 122 116 96
-57.975 14.1415 13.0458 96 97 86
-59.5583 14.5373 12.9775 106 117 125
-14.0289 13.2147 14.9999 49 72 64
-17.3045 13.6518 14.8376 178 186 189
-24.675 13.6593 14.4209 180 184 192
-25.2772 13.6781 14.3878 179 182 192
-26.8748 13.2778 14.2763 179 182 189
-32.9388 12.7855 13.9071 178 181 184
-34.2724 13.3933 13.8637 176 179 185
-35.5983 13.3207 13.7849 139 137 163
-40.3198 13.6938 13.5373 116 144 112
-42.0732 13.862 13.447 123 128 96
-52.4817 14.4149 12.8871 126 128 102
-58.5 14.2562 12.5382 83 98 95
-5.01247 11.0325 14.9305 179 185 187
-9.58878 12.7266 14.7601 141 143 118
-10.9506 12.5463 14.6729 94 108 95
-12.5339 12.8177 14.5971 132 130 120
-27.1663 12.9319 13.7692 180 183 188
-30.7946 12.3637 13.5321 178 181 182
-31.2051 12.6027 13.5214 180 181 183
-41.9678 13.9558 12.9803 119 124 114
-46.9447 13.4235 12.6682 111 114 103
-60.6102 14.767 11.9611 137 120 131
51.6347 6.03709 17.4473 172 180 194
-11.5376 12.5478 14.1733 140 156 170
-17.205 13.727 13.9118 179 189 189
-24.1065 11.4686 13.3934 180 187 189
-28.3597 12.2736 13.1928 178 184 181
-29.6737 12.1999 13.1134 178 183 182
-33.3449 12.9911 12.9455 180 183 186
-34.4683 13.1389 12.889 177 181 180
-40.8304 13.7897 12.559 122 124 109
-42.688 13.8473 12.4555 104 98 116
-43.2051 13.9774 12.4329 97 98 114
-49.6522 13.9484 12.0612 156 174 179
-51.8551 13.6715 11.9198 180 178 160
-59.0227 14.3536 11.5452 88 94 111
55.0153 1.52474 16.9503 152 160 158
52.1394 7.50226 17.1117 175 187 199
-6.21454 11.7021 13.9685 182 167 188
-10.853 12.6215 13.7508 145 137 140
-11.4422 12.6396 13.7177 144 137 145
-12.529 12.7845 13.6628 146 144 150
-15.3942 12.9845 13.5081 138 164 160
-24.2987 11.2314 12.8973 180 187 186
-25.5256 11.9458 12.8655 181 186 188
-29.5722 12.2934 12.6506 177 183 182
-30.7896 12.3299 12.5822 177 181 183
-31.2002 12.569 12.5716 179 181 185
-32.3206 12.7163 12.5149 179 180 185
-35.3893 13.4907 12.38 176 180 179
-49.7552 13.8198 11.5675 161 174 178
-52.3762 13.7855 11.4141 158 152 131
-60.4036 14.2635 10.9763 132 137 141
-13.615 12.9129 13.1403 83 78 99
-35.5968 13.9339 11.9173 174 176 183
-40.928 13.6449 11.5909 137 147 98
-41.9603 13.9048 11.5452 142 138 101
-42.7861 13.7023 11.4859 138 129 97
-50.592 13.5987 11.0257 175 182 183
-52.4801 13.6565 10.919 156 150 130
-59.9812 14.0018 10.5015 118 122 127
51.7898 6.19963 16.1305 176 178 193
52.0702 7.36625 16.2125 179 185 200
-7.78371 11.9388 12.9607 70 68 83
-10.5374 12.245 12.8165 90 87 101
-12.6174 12.6428 12.7169 103 109 144
-13.1149 12.7695 12.6949 88 79 124
-26.7304 11.9483 11.8505 182 182 168
-29.1571 12.0208 11.7123 180 176 166
-30.884 12.1858 11.6204 176 165 163
-49.8557 13.6739 10.5919 165 175 174
-51.3243 13.489 10.4954 183 174 163
-54.4786 13.5852 10.3159 129 130 106
-58.285 13.7013 10.0992 105 91 130
55.1694 1.69007 15.6285 154 154 154
-6.70112 11.7784 12.5505 129 106 91
-14.8881 12.8077 12.1258 108 128 149
-23.1822 11.0356 11.5353 180 184 180
-28.3499 12.2063 11.2969 165 152 133
-39.5808 12.9999 10.6791 121 117 109
-41.439 13.7409 10.6116 97 98 108
-43.5051 13.5764 10.4803 97 102 129
-45.5811 12.7237 10.3092 97 108 141
-50.6928 13.4526 10.049 176 180 178
-52.4751 13.6221 9.9534 151 142 130
-58.9191 13.7034 9.57763 99 90 113
-62.9341 14.9853 9.41358 121 138 162
51.8533 7.02094 15.292 175 185 196
52.4277 8.60041 15.4171 180 188 203
-12.1154 12.4829 11.8046 158 153 147
-14.1056 12.9899 11.7155 117 124 136
-30.6804 12.3728 10.6948 114 118 112
-38.548 12.7236 10.2474 104 110 93
-42.0558 13.743 10.0977 130 121 111
-46.8279 12.7441 9.75648 147 142 151
-49.4343 13.3972 9.63921 158 161 170
-53.6277 13.7555 9.4106 118 118 103
-54.4736 13.5508 9.34853 131 130 113
-59.134 13.4611 9.06637 96 89 99
-60.721 13.8571 8.99485 127 126 104
-62.5114 14.7233 8.93835 116 117 160
-63.682 14.8757 8.87755 144 174 202
55.2668 1.00667 14.7014 150 141 135
-4.28186 10.3395 11.6821 185 189 192
-7.6846 11.9975 11.5751 108 124 140
-15.3821 12.9014 11.1672 166 179 181
-23.9946 11.4778 10.5688 185 171 170
-24.8119 11.9537 10.5476 142 122 122
-29.461 12.3193 10.2907 113 120 145
-37.7257 12.9097 9.83057 105 128 116
-38.5455 12.7066 9.76968 114 132 126
-39.5758 12.9659 9.72313 139 147 129
-43.1893 13.19 9.51997 149 138 102
-44.2254 12.7636 9.43309 150 135 107
-45.1606 12.4475 9.3587 151 136 111
-50.0595 13.3992 9.12103 166 171 163
-51.529 13.2138 9.02227 177 162 153
-52.4701 13.5878 8.98777 142 129 128
-59.3491 13.2186 8.55458 95 91 87
-61.5766 13.634 8.44551 111 105 97
52.3744 7.72062 14.4764 178 182 194
-15.5681 12.6673 10.6748 158 173 179
-22.7871 11.4255 10.1666 182 184 176
-29.8686 12.5412 9.80578 158 150 166
-31.086 12.578 9.73461 141 132 144
-42.3597 13.3762 9.10247 118 117 108
-45.8866 12.3373 8.82868 107 106 109
-46.6162 12.244 8.77921 114 110 118
-47.6584 12.505 8.73182 123 122 113
-48.7016 12.7662 8.68439 120 126 112
-50.8972 13.1775 8.57638 171 166 162
-53.0982 13.5899 8.4681 116 100 108
-54.5758 13.4043 8.36813 133 120 121
-58.7091 13.1822 8.10599 83 87 67
-62.7259 14.4638 7.93962 115 121 150
54.2398 2.6206 13.8416 150 149 144
52.4398 4.71035 13.8572 165 169 175
-4.49742 10.7579 10.7647 183 187 193
-7.67976 11.9644 10.6437 94 82 63
-8.26628 11.9822 10.6092 101 96 92
-22.7637 10.7304 9.65514 178 181 179
-23.9896 11.4442 9.6234 178 173 147
-24.807 11.9201 9.60224 156 155 120
-30.5737 12.4325 9.28305 154 134 137
-34.6495 12.7826 9.05673 121 100 92
-38.0257 12.5432 8.83766 111 110 98
-40.8073 12.9694 8.69439 103 92 99
-44.013 12.9522 8.49892 98 102 123
-49.2211 12.8798 8.17869 131 141 135
-49.6378 13.1224 8.1679 159 164 160
-54.5732 13.3871 7.88434 133 115 124
-61.0415 13.4673 7.4968 119 109 85
53.9118 3.69021 13.44 154 153 148
51.8188 5.35449 13.4127 167 171 182
-10.1194 11.9105 10.0267 158 138 134
-11.8881 11.964 9.92192 125 132 73
-16.4676 12.9969 9.70467 177 182 182
-20.6907 11.668 9.36653 179 182 177
-22.6854 11.5019 9.23469 179 180 166
-29.8636 12.5075 8.85713 131 133 155
-31.6906 12.5627 8.7489 103 105 112
-34.8482 12.5446 8.55499 89 91 79
-37.3056 12.6186 8.40941 121 123 86
-48.28 12.4894 7.73149 134 132 132
-53.0932 13.5556 7.50199 123 105 110
-61.1484 13.3373 6.99695 117 107 91
54.778 2.57615 12.9796 145 141 128
53.4545 3.79331 12.9726 154 154 146
52.5924 4.88955 12.9866 163 167 173
52.4708 7.03182 13.11 170 177 189
52.7331 8.93708 13.2426 176 184 198
46.338 9.12445 12.8609 189 196 204
-3.28596 10.0223 9.8655 183 187 193
-6.37564 11.3365 9.75588 157 168 172
-7.36406 11.5885 9.71052 119 138 145
-9.03298 11.7499 9.6178 144 144 142
-10.2096 11.7854 9.54765 144 124 148
-12.5698 11.8564 9.40692 125 150 105
-30.5688 12.3987 8.33369 125 131 159
-38.7394 12.4168 7.83255 120 122 85
-39.2547 12.5463 7.80879 125 127 93
-49.2161 12.8455 7.21477 146 145 127
-54.461 13.4649 6.93022 125 104 98
-63.2683 13.8488 6.41231 112 127 111
54.0815 3.11609 12.5239 146 141 131
52.2362 7.44873 12.6775 174 180 195
49.708 8.4785 12.5847 191 196 213
47.9457 9.0616 12.5117 191 201 210
-11.4791 11.6955 8.99759 96 84 95
-12.6608 11.731 8.92668 108 115 96
-13.7508 11.8755 8.86816 110 120 128
-16.4627 12.9636 8.7676 178 179 176
-22.5837 11.5783 8.30325 179 176 159
-29.3498 12.3452 7.93201 155 145 147
-31.7853 12.4186 7.78585 138 132 144
-37.4022 12.4738 7.44172 114 105 103
-40.1813 12.8997 7.29608 126 123 117
-44.1092 12.7897 7.04624 101 97 89
-46.7109 12.0636 6.8404 107 98 88
-53.8264 13.4284 6.48447 131 120 93
-55.2948 13.9346 6.4249 117 95 84
52.3436 6.04287 12.1527 167 171 184
48.6315 9.23837 12.1213 195 203 215
-3.23011 10.7659 8.98675 185 187 189
-4.21509 11.0171 8.94109 185 184 187
-30.6631 12.2547 7.37124 141 114 104
-37.3997 12.4568 6.96432 103 80 77
-38.2193 12.2533 6.90054 98 86 82
-40.7974 12.9014 6.78049 127 121 129
-45.1456 12.3451 6.47491 94 100 103
-49.1056 12.9232 6.2644 134 134 121
-59.3495 12.4188 5.59489 144 129 100
-60.5183 12.5696 5.53152 151 130 99
-62.0917 13.6624 5.50182 142 119 105
54.1598 3.1903 11.6418 145 141 135
53.2969 4.28735 11.657 148 147 142
52.5833 5.59272 11.6948 159 165 169
52.404 6.87982 11.7649 169 176 188
52.078 7.95381 11.8123 177 185 201
49.477 8.87903 11.7078 193 199 214
48.3241 9.55032 11.6779 195 199 209
47.4058 9.79009 11.6355 191 192 203
-13.746 11.8422 7.93177 48 59 83
-15.4312 12.0048 7.8364 138 153 159
-16.5524 12.8215 7.81774 175 171 161
-22.3855 11.7643 7.38527 174 167 157
-31.7804 12.3848 6.83554 95 103 93
-44.4157 12.4211 6.04577 134 125 114
-45.8716 12.2347 5.94272 137 127 119
-46.8079 12.6073 5.90756 140 131 122
-51.2992 13.3175 5.6709 159 144 129
-61.906 12.4769 4.95287 126 106 83
53.8498 3.50508 11.1966 146 141 133
49.2439 9.29503 11.276 192 202 210
46.9486 9.89422 11.1694 188 190 198
-2.55244 10.824 8.10568 185 184 181
-2.68285 11.3822 8.13311 185 183 181
-12.1557 11.5545 7.54646 132 132 128
-14.4301 11.7344 7.41443 67 76 77
-17.6448 12.9504 7.28931 176 167 157
-26.0182 12.5332 6.73435 172 160 150
-27.6366 12.8081 6.6498 171 156 150
-29.046 12.6251 6.54918 147 136 140
-30.3605 12.5518 6.46156 109 114 117
-38.7294 12.3488 5.92057 131 128 107
-40.895 12.7563 5.80998 152 141 126
-49.1006 12.8889 5.30072 154 133 115
-53.4983 13.7129 5.07592 153 129 103
53.3753 4.3612 10.7762 150 145 136
52.7356 5.77121 10.8266 157 157 159
52.3192 7.48996 10.9112 173 180 193
49.556 8.95153 10.8302 191 200 213
48.3287 9.51872 10.7889 191 201 206
47.4853 9.86242 10.7575 190 195 201
46.0396 9.37387 10.6342 186 189 194
-5.06489 10.6593 7.47208 178 172 163
-14.9269 11.8446 6.92239 136 136 122
-16.71 11.8982 6.81263 171 163 147
-17.9273 12.6069 6.78112 173 163 146
-22.0693 11.3835 6.43907 170 160 145
-22.0909 12.06 6.48139 171 160 146
-44.4107 12.3869 5.08522 155 134 113
-46.8029 12.5731 4.94533 151 132 112
-51.8175 13.4142 4.68124 146 117 91
-53.8164 13.3597 4.5508 139 107 89
52.4267 6.08452 10.3829 158 159 163
51.7597 8.97746 10.5292 185 192 212
-3.84251 11.3841 7.13297 179 168 158
-7.77357 10.2759 6.8094 177 164 149
-12.9292 11.3209 6.54816 157 150 135
-13.4276 11.4476 6.52457 149 146 127
-15.0187 11.7189 6.4406 153 147 135
-18.7115 12.3903 6.24845 170 158 139
-22.1849 11.9335 5.99666 168 153 137
-26.8306 12.9754 5.76781 162 145 129
-28.8438 12.8114 5.62843 158 142 124
-30.3556 12.5181 5.51267 155 140 120
-31.0637 12.4262 5.46141 156 138 120
-37.4913 12.278 5.04098 150 132 108
-38.8265 12.2037 4.9508 152 132 109
-39.9601 12.3517 4.88802 150 128 111
-40.9927 12.6112 4.83896 149 127 113
-45.1356 12.2767 4.55238 146 123 103
-52.2322 13.64 4.18787 125 89 72
50.4032 8.57668 9.97286 189 198 216
49.3252 9.35161 9.95467 194 201 211
48.408 9.59108 9.91147 193 197 203
47.0305 9.95074 9.84662 188 190 195
-15.6102 11.72 5.93482 163 143 132
-27.8096 11.859 5.15941 155 133 115
-29.2362 12.3543 5.10036 152 133 111
-32.0696 11.9857 4.89381 150 127 110
51.8245 5.96211 9.44707 158 160 160
51.7944 7.45746 9.54484 175 180 189
-14.1093 11.3228 5.53743 160 142 126
-28.71 11.5291 4.60625 145 123 103
-29.6293 11.8963 4.57125 142 121 103
-31.4568 11.9507 4.4566 138 112 100
-34.6154 11.9308 4.25085 132 110 90
-46.3771 12.9684 3.55885 104 72 55
51.9596 6.90423 9.07471 163 166 167
-13.4203 11.3977 5.11966 155 132 111
-28.3805 10.481 4.08361 133 108 86
-30.4339 11.6766 4.03045 124 94 78
-34.6129 11.9139 3.77428 113 82 71
51.7551 5.82538 8.54395 149 150 148
51.4886 7.754 8.65779 174 184 194
50.5584 8.73755 8.66378 190 198 215
50.0871 9.6 8.69162 195 199 218
49.2457 9.94303 8.65983 195 197 209
44.1376 8.92415 8.25573 184 183 185
-6.71766 10.7367 5.04655 152 132 112
-12.5147 11.0187 4.68588 145 122 101
-14.6978 11.307 4.56245 140 113 95
-15.1032 11.5431 4.55195 138 113 96
-30.3185 11.0885 3.52392 103 78 65
53.3832 1.13615 7.88407 135 142 152
52.6663 2.45205 7.92729 135 139 146
51.9642 6.87262 8.18503 153 155 158
51.2546 8.17043 8.22751 179 191 202
43.6016 8.9239 7.77471 181 181 178
-13.8551 10.1443 4.07014 129 97 79
51.4932 7.72242 7.76894 169 178 187
50.0918 9.56846 7.80422 192 197 200
51.6139 5.5676 7.18232 142 141 145
51.2592 8.13886 7.33908 175 183 190
52.6732 2.40432 6.58437 164 184 203
51.5717 7.79517 6.89245 162 162 160
51.0255 8.5549 6.90961 182 182 191
50.1705 9.64066 6.92914 184 179 179
49.1805 9.77621 6.87226 177 166 155
54.2079 2.22845 5.78267 204 243 247
48.1939 9.88036 5.92688 126 103 86
52.2732 7.19602 5.56672 176 192 186
51.1802 8.71562 5.60286 112 87 78
50.6348 9.47382 5.6209 83 63 57
49.868 9.92032 5.60104 80 64 55
57.9382 2.1093 5.13825 195 235 240
54.8012 3.04526 4.99143 233 254 239
53.4962 3.50769 4.93573 232 245 237
51.2443 9.5302 4.78229 46 40 45
52.5489 5.21832 4.10728 132 104 89
55.5603 3.30212 3.72829 171 152 129
57.8022 1.83396 3.32917 183 165 148
53.9467 0.933028 2.54184 73 53 55
53.3015 -0.825201 1.46359 43 35 32
51.1773 -6.30904 0.427639 59 49 47
52.8761 -2.27027 0.42042 67 64 57
51.9208 -4.46961 -0.276058 103 91 79
-41.6742 12.2195 40.113 135 192 202
50.2158 7.37375 39.2894 175 191 195
36.1485 13.446 38.5506 202 208 221
50.4444 7.81574 38.4001 171 186 193
36.272 13.6452 37.6551 202 213 221
35.8486 13.8031 37.646 197 206 217
8.22754 14.6996 36.8634 200 210 214
7.13785 15.54 36.8488 196 209 205
6.00962 15.3821 36.8129 198 212 215
50.2825 7.41873 37.4836 164 177 193
18.2664 15.1065 36.7073 197 213 222
59.8932 -7.9524 36.9823 146 146 142
37.1244 13.2919 36.77 205 217 241
36.0412 13.1342 36.7346 206 218 236
35.2528 13.5687 36.7207 201 206 231
34.1671 13.4112 36.6852 200 206 230
8.00304 15.1814 35.9503 201 214 219
6.28368 15.8226 35.9134 205 217 232
-52.5199 16.5061 34.1904 207 233 255
27.2518 13.7119 36.0335 202 212 223
19.7438 14.9478 35.8373 203 213 223
37.7879 13.5697 35.8938 206 214 233
36.2829 13.5703 35.8485 205 218 226
32.7202 13.4928 35.7394 200 210 216
20.8529 15.0861 35.4189 199 207 218
7.01508 15.2246 35.0054 200 210 220
-16.1097 15.3386 34.3115 201 224 238
-30.7344 15.2377 33.8687 204 226 247
-31.2523 15.2793 33.8541 206 226 247
-32.2889 15.3626 33.8248 205 229 247
-34.0817 15.1194 33.7651 205 229 249
-35.8458 15.7773 33.7273 205 226 248
-39.6944 16.6034 33.6305 206 229 251
-48.6523 16.4174 33.3564 203 231 254
-60.2037 16.6901 33.0148 182 195 228
-62.512 16.6123 32.9435 173 196 206
31.8138 13.6721 35.2638 200 211 220
19.1953 14.8314 34.9079 199 210 222
18.6408 14.7526 34.8892 199 210 222
17.5943 14.7141 34.8565 201 212 221
4.96055 15.2485 34.4852 196 207 222
-18.5096 15.7687 33.7841 198 220 236
-29.6192 15.2575 33.4341 200 225 242
-33.1669 15.6716 33.3362 201 223 247
-49.6205 16.6057 32.8583 207 209 219
-61.2675 16.7556 32.5078 136 153 185
37.7347 13.4142 34.9866 203 217 227
36.7707 13.4933 34.959 205 216 225
29.6933 13.4563 34.7409 198 209 210
16.5491 14.6566 34.3673 197 206 216
7.5467 14.2661 34.0814 200 210 219
6.75264 14.7072 34.0679 201 210 216
-8.70839 15.2087 33.6059 198 212 225
-15.0122 15.339 33.4157 196 211 227
-30.6511 15.3213 32.9354 201 223 238
-31.1688 15.3629 32.9206 202 222 240
-34.4851 16.1448 32.8381 202 223 252
-47.1813 16.9094 32.4675 183 167 130
-48.3155 16.871 32.4317 182 163 142
-59.4069 16.9799 32.0941 131 139 177
-62.9537 16.7397 31.9793 111 129 104
38.1606 13.2377 34.5444 200 214 224
26.8985 13.9143 34.2129 199 205 213
16.4231 14.3991 33.9008 199 206 216
15.373 14.3602 33.8673 198 206 215
14.4513 14.5603 33.8439 197 206 212
13.6594 14.9992 33.8306 196 205 211
5.32926 14.93 33.5708 197 209 219
-4.89123 15.3854 33.2659 197 209 221
-14.1379 14.9947 32.9696 194 209 222
-15.5918 15.2396 32.9309 196 210 219
-20.6975 15.6528 32.7833 199 218 223
-29.6135 15.2187 32.4961 202 208 201
-42.7834 16.0182 32.1087 141 171 153
-48.3127 16.8514 31.9587 162 163 157
-52.3378 16.6549 31.829 148 133 149
-53.3956 16.7396 31.7984 138 122 146
-54.0092 16.6585 31.7773 131 119 151
20.1047 13.5811 33.5383 195 202 207
-1.95808 15.8832 32.9092 193 207 211
-7.55003 15.3299 32.7199 192 201 211
-9.2085 15.2114 32.665 185 196 219
-34.4008 16.2282 31.9044 179 186 206
-45.4028 16.2091 31.5601 171 198 202
-46.8147 16.5819 31.5258 174 198 202
-47.4228 16.501 31.5046 176 199 204
-49.695 16.4235 31.4316 159 150 135
-61.7927 16.739 31.0618 104 98 124
40.4558 12.7663 33.7022 200 213 226
14.7556 14.1234 32.9285 193 201 196
13.8982 14.4432 32.9101 193 200 191
7.35422 13.8484 32.6877 193 190 180
5.83274 14.8513 32.6668 195 191 175
-2.23303 15.3833 32.4268 187 179 168
-22.6658 15.9016 31.7965 192 203 213
-54.4487 16.7852 30.8182 111 122 94
-60.5498 16.8821 30.6284 149 140 109
-61.9633 16.4709 30.5727 149 141 113
-7.11068 15.1298 31.8039 161 164 154
-9.20292 15.173 31.7386 137 127 134
-20.6144 15.7165 31.3906 187 200 206
-42.4506 16.4513 30.7163 188 199 207
-45.479 16.0467 30.6087 176 194 218
-46.8913 16.4195 30.5741 171 185 212
-47.9432 16.504 30.543 174 189 216
-48.6352 16.2997 30.5153 174 187 214
-49.1621 16.342 30.4997 172 183 212
-53.387 16.6807 30.3747 123 148 142
-62.4947 16.4937 30.0797 134 140 102
31.5262 13.9549 32.5484 172 154 157
21.3472 13.9218 32.2207 167 161 159
20.0495 13.405 32.1643 157 147 153
13.6053 14.8042 31.9974 159 161 146
-32.4749 15.758 30.5455 151 165 148
-53.9978 16.5799 29.8781 110 122 128
-55.0575 16.6647 29.8465 107 124 134
-60.6304 16.7186 29.6692 100 109 104
-62.5788 16.3497 29.5961 93 118 122
51.0845 5.65487 32.4866 168 177 184
49.535 10.8626 32.5888 195 202 223
21.35 13.903 31.7652 148 140 127
19.9887 13.2665 31.7025 132 124 116
-1.49872 14.7626 31.0505 133 131 120
-8.83445 14.8517 30.8156 135 138 157
-9.34042 14.8927 30.8004 131 136 148
-12.5263 14.8965 30.6974 136 143 160
-20.4594 15.9208 30.4705 186 198 203
-22.5822 15.9652 30.403 191 201 203
-23.3211 15.6418 30.3696 191 200 203
-38.3473 15.9534 29.8922 198 197 224
-46.4422 16.215 29.6378 114 107 93
-48.7123 16.1371 29.562 115 98 112
-49.2394 16.1794 29.5461 117 104 118
-54.4401 16.7262 29.3937 108 118 115
-61.2474 16.6173 29.1701 108 115 132
52.6392 5.76344 32.0878 156 165 171
48.1045 10.9605 32.0957 195 206 229
46.3597 11.4717 32.0541 201 211 232
-7.17325 14.9515 30.41 154 148 127
-32.6256 15.4742 29.5944 133 159 153
-43.5703 16.354 29.2633 120 124 130
-47.4911 16.2798 29.133 128 132 90
-52.4046 16.4134 28.9765 135 146 104
-53.9921 16.5405 28.9285 119 119 86
-55.0517 16.6254 28.8964 135 132 124
-61.3311 16.4735 28.6868 134 128 139
53.5462 5.54854 31.6587 154 162 166
52.4387 6.38416 31.648 156 163 169
51.1313 7.85578 31.6502 166 173 187
50.8189 8.25277 31.6521 170 177 189
49.3176 10.351 31.6672 188 195 204
46.4189 11.5715 31.6093 201 209 218
19.2021 13.6674 30.7771 150 160 171
18.7105 13.7075 30.7622 150 161 169
13.2876 14.1496 30.5971 169 180 192
12.233 14.1104 30.5612 168 182 197
-7.17046 14.9323 29.9472 128 127 109
-12.4483 14.9793 29.7748 143 143 146
-22.2758 16.4124 29.4951 189 197 197
-23.3155 15.6031 29.436 191 198 196
-38.9431 15.8335 28.9282 185 175 199
-46.9622 16.218 28.6759 100 108 84
-49.3168 16.0166 28.5921 134 138 126
-50.9836 16.0197 28.5373 115 109 94
-54.4344 16.6869 28.4441 107 100 80
54.5075 5.45409 31.2355 152 160 166
40.2401 12.1804 30.9735 163 162 138
20.1239 13.4489 30.3451 188 194 202
7.43779 13.8545 29.9364 167 156 137
-19.4287 15.7801 29.1044 147 169 187
-20.5257 15.7414 29.0667 186 197 202
-33.7837 16.1726 28.6398 167 162 173
-34.7425 16.3786 28.6144 182 192 198
-39.4621 15.8559 28.4411 168 165 187
-47.0417 16.0751 28.1962 77 86 105
-48.177 16.0361 28.1572 68 82 116
-54.1552 16.2538 27.9655 83 95 120
-55.6611 16.5048 27.9233 93 109 136
-56.8931 16.342 27.8773 127 137 153
-62.2066 15.9791 27.6893 121 124 113
52.5547 6.587 30.7546 117 111 99
51.6156 7.7801 30.7617 114 109 106
45.8325 11.3363 30.6827 162 160 141
22.4035 13.8666 29.9793 192 203 208
19.1439 13.5101 29.8586 193 201 203
18.6522 13.5501 29.8434 190 199 199
-12.5151 14.8196 28.84 143 147 163
-22.6462 15.7664 28.5311 188 193 186
-23.461 15.3207 28.4894 181 184 166
-24.1261 15.1182 28.4606 164 168 134
-25.5169 15.4866 28.4258 159 168 157
-40.5842 15.7974 27.931 177 182 195
-41.0263 15.9622 27.9215 178 188 192
-52.564 16.1072 27.5395 116 125 163
53.7194 5.85338 30.3181 158 162 159
49.27 10.1762 30.3106 114 113 121
20.0025 13.172 29.4206 198 200 211
-13.5285 14.8825 28.344 160 142 140
-21.1065 15.6227 28.1124 192 196 206
-26.7731 15.1839 27.9064 167 166 170
-34.6582 16.462 27.6822 171 184 197
-38.413 15.7331 27.5312 186 188 200
-55.8253 16.2177 26.9589 130 128 147
-56.8874 16.3026 26.9258 118 115 139
52.6153 6.66954 29.8562 114 120 123
51.621 7.74269 29.8586 121 122 141
48.3161 10.2351 29.8303 118 115 131
45.4722 11.5749 29.7786 119 119 116
21.9193 13.8689 29.0536 196 203 212
19.022 13.2331 28.9334 199 204 212
18.0377 13.313 28.9026 195 201 205
-22.7159 15.606 27.5914 181 178 210
-23.4554 15.282 27.5553 165 167 204
-24.0447 15.2015 27.5325 155 160 202
-25.5113 15.4478 27.4908 126 131 141
-41.1819 15.6772 26.9646 145 128 101
-63.4424 15.7556 26.2087 118 117 139
49.2754 10.1389 29.4099 151 165 177
40.251 12.1056 29.1678 173 184 193
22.349 13.6909 28.6075 194 203 211
21.3061 13.6516 28.5703 199 204 214
20.0714 13.2538 28.5141 198 201 210
-1.32404 13.9846 27.8043 139 136 140
-13.5229 14.844 27.4149 99 103 135
-26.7674 15.1451 26.9703 130 137 135
-37.9658 15.5294 26.5988 187 189 190
-56.3505 16.2207 25.9911 124 134 90
-58.5626 16.2665 25.9166 126 119 80
51.6818 7.82486 28.9617 163 176 188
48.3215 10.1978 28.9291 174 186 209
47.8429 10.2365 28.9139 171 186 210
46.3222 11.2226 28.896 178 191 215
45.3643 11.3007 28.8656 170 186 205
35.9719 12.5598 28.5847 179 191 201
-13.5201 14.8247 26.9503 131 132 151
-19.8615 14.954 26.7352 169 180 185
-22.348 15.2824 26.6607 178 174 151
-51.5786 15.8203 25.6672 125 138 155
-59.3502 15.9167 25.4014 132 129 96
52.9923 6.33523 28.5028 160 166 177
50.2699 9.03413 28.5051 183 190 204
40.7376 12.029 28.2803 194 198 210
33.6752 12.9761 28.0678 192 200 202
32.1617 12.9761 28.015 191 200 205
31.6767 13.0157 27.9995 191 200 205
-1.82093 13.987 26.8647 146 159 165
-15.5527 14.9699 26.4206 175 182 186
-24.112 15.0214 26.1236 142 146 130
-25.579 15.2677 26.0812 132 137 147
-32.7303 15.9724 25.8569 124 126 143
-62.3633 15.6113 24.809 109 115 141
46.1581 10.8295 27.9762 200 207 222
44.8335 11.1838 27.9426 195 203 209
35.9182 12.4036 27.6737 192 201 205
33.678 12.9573 27.6152 193 200 202
32.6493 12.9178 27.5775 192 200 203
15.7781 13.7969 27.016 193 197 197
2.83174 13.8442 26.562 172 186 189
2.39983 14.0053 26.5527 169 183 187
-15.0407 14.9095 25.972 180 186 190
-19.4187 14.7524 25.8121 183 190 192
-20.4425 14.8348 25.7791 184 193 195
-26.759 15.0869 25.566 165 176 191
-27.3512 15.0061 25.5422 169 181 195
-58.1075 16.0408 24.4975 143 146 152
51.2667 7.92661 27.5983 177 185 195
49.4856 9.43115 27.5916 190 196 221
47.3159 10.1004 27.5398 197 207 226
3.97014 13.9852 26.1476 187 192 197
-2.24842 14.1102 25.9316 187 190 192
-23.0034 15.022 25.2294 184 182 184
-25.135 15.0654 25.1554 154 170 167
-59.8747 15.8999 23.954 136 124 141
52.6869 6.67721 27.1503 166 172 180
41.4576 12.4075 26.9684 196 201 208
40.1316 12.7621 26.9346 195 201 208
32.294 12.1665 26.6314 191 202 206
10.5107 13.5616 25.9057 191 199 208
3.90499 13.8456 25.6804 189 195 205
2.20028 13.6052 25.6102 187 193 201
-1.37954 13.768 25.4884 188 192 193
-20.0741 14.5111 24.8482 185 194 194
-22.0495 14.798 24.7885 186 196 199
-25.1321 15.046 24.6878 174 190 190
-26.6003 15.2925 24.6447 184 192 199
-48.3168 15.6126 23.8802 139 151 119
-49.01 15.4073 23.8475 127 133 117
56.9136 -2.75025 26.4827 146 147 143
-8.57792 14.0765 24.7797 190 192 199
-10.0975 14.199 24.7297 187 195 198
-21.0962 14.5742 24.3478 187 199 197
-38.1882 15.0434 23.75 189 189 170
17.0103 13.1219 25.2083 192 203 204
7.4682 13.6451 24.8825 194 200 208
1.13534 13.5272 24.6477 193 201 207
-2.10091 14.2944 24.5607 190 198 204
-7.63448 13.8543 24.3421 190 196 204
-21.9068 14.1074 23.8336 189 196 196
-22.3451 14.2708 23.8242 188 195 197
-27.2632 15.0508 23.6766 184 193 190
-48.8383 15.6154 22.9152 126 141 155
-51.0329 15.6602 22.8373 137 150 161
-59.333 15.7982 22.5412 133 154 165
57.504 -3.72872 25.5501 144 141 130
56.5997 -2.38061 25.5718 148 148 142
47.0449 9.43034 25.7017 197 205 228
46.1984 9.74605 25.6835 198 207 225
-31.7835 14.7508 23.0314 188 193 192
-32.7426 14.9566 23.0046 185 191 189
-0.57152 13.2475 23.6519 190 196 202
-1.80147 13.853 23.6315 192 201 200
-4.96202 13.8549 23.515 195 199 200
-5.74893 13.4105 23.4676 194 198 197
-10.5961 14.1822 23.3207 183 189 190
-31.9369 14.4858 22.5458 182 188 190
-32.8964 14.6916 22.5189 181 187 188
-35.1327 14.6119 22.4331 180 183 188
47.4173 9.11584 24.8008 196 204 225
-35.8088 14.3878 21.9285 175 181 190
-45.9504 15.7165 21.6074 127 143 188
-4.52256 13.6547 22.5988 182 190 193
-5.02689 13.6953 22.5816 181 190 192
-10.6625 14.0223 22.3845 173 169 165
-47.3602 16.0699 21.0975 143 161 184
-53.1373 15.7503 20.8674 149 171 185
48.3256 8.88198 23.9232 193 199 224
-0.996341 13.3516 22.2566 183 185 197
-2.29581 13.8363 22.2287 182 183 189
-40.3408 14.97 20.8422 167 173 178
-42.2726 15.3837 20.7873 170 175 180
53.4074 6.96904 23.5808 163 168 172
-3.43907 13.6563 21.716 180 186 192
-53.1316 15.711 19.9176 176 187 201
-55.9523 15.6742 19.8087 177 189 197
-59.5577 14.5161 19.6201 174 188 195
-60.194 15.2242 19.6274 179 190 197
-62.4187 15.269 19.5448 180 191 199
57.5292 -2.69069 22.8517 142 140 132
-40.3352 14.9309 19.8984 178 183 192
-41.22 15.261 19.8794 178 181 188
54.1898 5.3766 22.6365 150 149 151
47.4872 9.14158 22.5507 191 198 216
-36.678 14.6196 19.5542 177 188 192
-38.803 13.8808 19.4382 179 184 193
-41.0168 14.7064 19.3907 178 182 192
-55.5855 15.3443 18.8578 172 179 193
-57.9692 15.1402 18.7564 150 165 168
55.2337 3.27419 22.1273 144 144 140
53.1359 9.53184 22.3378 164 173 180
-3.85132 12.8711 20.2784 178 187 191
