ply
format ascii 1.0
element vertex 1311
property float x
property float y
property float z
property uchar red
property uchar green
property uchar blue
end_header
-38.264 14.1115 5.75762 83 82 103
-39.7871 9.22131 4.82551 87 86 84
-39.7558 7.44282 4.40062 106 101 82
-39.9266 6.89323 4.2958 112 104 80
-40.3753 5.98858 4.14788 123 104 73
-34.7502 22.8314 6.88377 84 83 119
-39.7573 8.31993 4.1822 107 105 90
-40.1101 6.37835 3.77402 125 113 75
-37.3814 18.4168 5.80465 86 88 116
-38.2355 14.0862 4.90168 80 75 98
-38.9103 11.9193 4.48645 88 82 82
-39.6524 9.0002 3.90241 114 108 86
-39.887 7.70925 3.63027 128 120 91
-38.9416 -0.147251 1.62328 108 68 60
-39.2763 -0.406266 1.61121 103 67 65
-39.2868 -1.27162 1.40709 93 64 66
-39.2972 -2.13928 1.20243 84 64 71
-29.8586 28.9759 6.78476 98 101 141
-34.672 21.9058 5.81378 77 81 115
-37.7805 17.476 5.21913 84 83 89
-39.6117 8.93822 3.45595 124 115 78
-39.6454 -2.363 0.7675 81 74 76
-17.4533 37.5525 6.57044 97 60 54
-20.0169 37.0344 6.82826 70 41 54
-37.6867 17.322 4.74738 102 97 81
-37.7562 15.7741 4.38776 105 96 85
-38.7563 13.3621 3.96017 82 69 77
-39.7522 7.48666 2.70418 129 120 86
-22.9927 34.9087 6.34614 105 87 79
-37.9193 16.9154 4.26346 116 103 77
-38.2634 15.0174 3.85997 90 68 88
-38.706 14.1292 3.71321 77 57 81
-38.9137 10.2598 2.81684 127 109 86
-39.2636 8.32659 2.40581 120 106 78
-36.7256 18.9665 4.15608 130 123 94
-37.8869 16.0341 3.62539 111 86 74
-39.1693 8.16669 1.92677 116 103 80
-36.4652 19.3475 3.788 131 123 92
-36.7979 18.2785 3.58042 132 118 79
-39.924 13.8216 2.97648 103 96 106
-39.2248 9.14023 1.74306 114 105 93
-38.4062 15.313 2.68528 65 60 67
-38.6804 14.9647 2.64248 62 62 78
-38.7375 9.97761 1.44583 109 107 105
-23.7329 33.8471 4.53219 125 99 72
-28.42 29.8206 4.26627 112 64 66
-31.8186 25.9891 3.85243 86 49 69
-36.5561 17.8767 2.60394 122 113 129
-37.7561 16.6766 2.49486 104 103 120
-37.8175 15.9493 2.32789 95 98 105
-39.0263 9.66067 0.986942 95 90 78
-40.1332 8.25002 0.812717 87 84 70
-13.861 38.8565 3.83164 97 66 97
-24.8174 32.5191 3.95661 115 70 62
-27.6256 30.879 3.9848 115 73 71
-28.8582 28.1901 3.51869 95 49 66
-30.9122 26.8683 3.50961 67 39 75
-32.5882 24.902 3.2865 43 40 105
-38.3248 15.1928 1.79878 90 92 89
-38.8204 14.4001 1.68148 77 82 76
-39.8027 13.64 1.64605 84 83 67
-36.8539 17.5995 1.73831 114 103 98
-37.7357 15.8294 1.44143 105 93 89
-39.1601 14.1819 1.25717 77 80 69
-12.0867 39.9149 2.97977 136 117 126
-30.4497 26.9131 2.61238 82 81 81
-32.9908 24.8129 2.48799 89 87 122
-36.6393 18.8939 1.59993 89 87 82
-39.1317 14.1566 0.400627 92 80 69
-38.3209 13.0287 63.8169 84 50 51
-38.5268 12.6439 63.7872 82 49 51
-39.0078 9.41459 63.4308 61 32 44
-40.5442 4.244 62.5105 86 53 56
-33.0873 22.4945 63.7119 121 106 82
-37.534 14.0239 62.6354 76 39 52
-39.1137 10.2238 62.3 61 33 47
-40.1552 3.79256 61.5885 90 57 53
-31.3322 24.1985 62.9497 70 92 158
-35.8985 15.867 62.3095 98 55 52
-40.6475 5.70573 61.4559 105 74 59
-35.7749 16.3623 61.9487 99 58 51
-35.8415 15.8146 61.8856 97 54 51
-37.4897 14.0007 61.8042 73 35 48
-40.1811 3.20527 60.6843 80 47 52
-40.5983 2.423 60.623 61 39 71
-40.0495 6.93087 60.7273 105 77 56
-30.4787 25.1098 61.7571 59 87 168
-40.4095 5.45625 60.1577 101 66 60
-40.3443 3.43575 59.895 77 45 50
-40.6923 2.56827 59.8163 61 40 61
-31.1713 24.0767 61.2778 63 90 170
-34.9222 17.9034 60.8315 110 70 63
-35.468 16.6712 60.7239 110 67 60
-35.3261 15.8779 60.6097 109 66 59
-40.2842 5.31649 59.7131 98 62 57
-40.1473 4.50208 59.5967 91 55 56
-40.9169 0.907535 59.2079 67 71 90
-40.0878 6.37829 59.4157 102 67 56
-41.1328 2.49361 59.0135 63 52 55
-40.9985 1.02354 58.8127 86 81 94
-31.1259 24.0556 60.4495 63 95 169
-35.6286 16.2645 59.8619 107 67 58
-37.0004 14.1215 59.7126 83 41 55
-40.0332 5.03659 58.8227 96 60 57
-41.1452 2.52342 58.6018 77 68 62
-41.9194 -1.08304 58.2089 77 88 168
-41.5108 0.384844 57.9425 85 87 135
-41.2431 1.37127 57.6279 113 107 108
-31.0927 24.064 59.2148 69 101 177
-35.8043 16.5165 58.6739 104 64 61
-40.0006 5.68511 57.6562 90 54 56
-20.9891 32.8643 58.999 50 60 136
-31.105 24.0934 58.8088 71 102 180
-41.13 1.25896 56.7677 112 104 107
-41.4103 0.301908 56.6689 83 86 137
-38.2308 13.1414 57.6367 53 33 76
-39.1939 9.22097 57.2128 57 42 68
-41.2076 2.67248 56.5435 119 111 83
-39.2063 9.25061 56.8036 61 43 58
-40.2448 6.02826 56.4776 83 51 50
-40.8046 2.83668 56.1097 118 112 86
-41.3662 0.275355 55.8252 82 81 131
-38.1867 13.1179 56.8037 49 33 72
-40.7465 3.42841 55.7656 118 109 84
-40.9585 1.74055 55.5621 115 103 76
-41.0985 1.26254 55.5122 111 97 92
-40.5533 2.5538 55.2135 121 112 86
-41.3934 -0.317051 54.9127 76 79 129
-32.1972 23.5765 56.7909 83 112 185
-38.9675 10.917 55.7597 109 82 67
-40.5644 3.23173 54.8879 119 111 84
-40.7055 2.10624 54.7511 119 106 76
-40.8579 1.65826 54.2883 112 96 70
-41.0669 1.26611 54.2562 100 84 88
-32.0181 24.0161 56.0106 90 116 189
-39.3365 10.7562 54.947 115 80 63
-40.1691 6.00768 54.3889 42 42 90
-40.7305 2.16596 53.9264 121 101 73
-41.0813 0.644974 53.756 73 61 90
-40.6018 3.3212 53.6523 119 105 76
-40.8137 1.63204 53.4447 104 80 65
-40.9554 0.502251 53.3058 69 53 84
-40.1929 6.70972 53.655 47 62 121
-40.8312 -0.293512 52.7666 66 66 113
-35.8759 18.015 54.3477 79 102 173
-39.4424 10.9282 53.7398 113 74 64
-40.7648 3.55166 52.8659 117 99 67
-40.6297 2.08386 52.6518 100 74 60
-40.7004 1.51975 52.5819 84 59 53
-35.0625 18.3231 53.8954 85 107 176
-36.2984 17.2781 53.8776 80 102 154
-40.2189 6.12662 52.7465 54 65 118
-40.5855 2.05774 51.8079 86 59 60
-38.7913 12.7254 52.68 124 100 76
-38.9289 11.6229 52.5417 119 90 67
-39.1363 8.04613 52.0686 68 38 65
-40.5995 1.43728 51.3055 78 57 56
-36.2662 17.285 52.6386 88 98 114
-40.5427 1.38107 50.8734 76 56 50
-40.6149 0.163248 50.7118 61 58 79
-36.2909 17.344 51.8247 100 103 89
-41.1842 4.15679 50.4916 93 74 66
-40.2188 2.31172 50.1325 84 62 58
-40.2916 0.443637 49.8788 64 50 64
-39.1159 11.9071 50.9458 114 81 64
-39.0476 9.27688 50.5693 77 40 55
-40.1525 8.06087 50.5147 45 42 77
-40.1198 0.926969 48.6708 105 85 61
-39.0154 12.4642 49.773 118 84 67
-40.6106 4.80113 48.8546 123 107 76
-40.0608 2.17355 48.4224 124 102 79
-40.4931 0.766303 47.8494 93 71 77
-40.1437 9.40329 48.6294 62 41 52
-40.6369 4.21482 47.9396 116 92 62
-40.1552 2.31931 47.616 116 89 62
-40.642 7.46259 47.9899 120 103 71
-40.781 6.98994 47.937 118 97 66
-40.6744 4.30426 46.7046 113 90 69
-40.1928 2.40903 46.377 115 88 62
-40.6126 0.972453 46.2151 91 66 71
-40.339 5.20008 46.3805 111 88 66
-40.4922 4.10815 45.8209 118 92 70
-40.2178 2.46884 45.551 112 82 60
-39.1832 12.1494 46.4354 59 32 61
-40.0101 10.6049 46.3015 78 63 60
-40.2247 5.73459 45.6117 117 92 66
-40.1607 10.1645 45.8393 110 97 80
-40.1735 2.44277 44.7046 104 68 58
-38.4519 14.4646 45.8664 69 40 54
-39.3455 12.3742 45.6588 51 32 68
-40.1816 5.0642 44.6737 113 84 59
-40.0453 3.59966 44.442 112 76 61
-40.954 0.815348 44.1336 63 51 84
-28.5152 -30.6498 38.079 137 144 136
-40.4717 4.78856 44.2484 111 73 59
-39.1638 12.8188 44.8762 43 37 90
-40.2665 10.3367 44.633 121 106 79
-40.4125 6.02321 44.0078 114 81 62
-28.3128 -30.8828 37.132 137 143 136
-38.2148 15.4858 44.7516 40 35 90
-40.0024 11.3053 44.3327 103 90 69
-40.3573 5.32366 43.48 107 66 56
-40.3585 4.67793 43.3837 100 59 54
-27.1106 -31.7143 36.4246 132 145 144
-28.3394 -30.8192 36.2546 140 146 136
-38.4453 15.1607 43.9033 44 57 128
-40.0271 11.3645 43.5159 110 92 65
-40.1048 5.68856 42.6708 103 59 52
-40.0366 4.95806 42.5529 94 51 49
-26.9176 -31.225 35.5834 129 142 153
-38.1817 14.2304 43.3188 53 71 150
-40.1162 6.3626 42.3565 104 64 55
-40.1999 5.18785 41.7711 85 46 51
-26.6365 -31.5584 34.6074 127 139 150
-38.2759 15.0031 42.6196 64 82 156
-40.003 6.2528 41.4921 92 52 54
-40.4209 4.82704 41.3245 78 43 56
-29.5253 -29.9324 34.7493 163 166 144
-39.2503 13.0256 42.0198 64 70 85
-39.4609 6.89295 41.1082 93 51 52
-40.5729 4.38083 40.8565 65 34 59
-18.4623 37.3681 42.857 78 107 172
-36.3191 20.2291 42.3601 78 98 171
-38.0258 15.3645 41.8181 66 86 161
-39.7506 6.61755 40.6832 85 45 51
-40.1671 5.83755 40.6133 77 43 52
-41.1409 3.79925 40.4171 44 32 94
-26.3681 -31.8606 33.1891 110 127 138
-36.1244 20.0165 41.8922 77 96 157
-40.1095 6.42683 40.2795 78 40 49
-41.1515 4.47578 40.1043 45 29 90
-18.2678 37.1952 41.9802 82 109 172
-39.5674 7.06684 39.8957 95 52 51
-40.0653 6.40172 39.4356 70 36 51
-27.8143 29.6041 41.1347 97 124 186
-41.8866 2.83024 38.6844 44 57 93
-21.0105 35.4088 40.796 106 96 149
-39.1322 7.23759 38.1992 103 60 57
-41.636 2.54715 37.7725 71 76 81
-39.9028 10.1137 38.3288 118 87 63
-39.7658 9.30775 38.1852 117 79 60
-22.6057 -34.4616 29.1845 100 114 156
-38.8801 12.7129 38.1961 126 109 90
-39.8471 9.42119 37.797 118 82 62
-41.5231 2.43529 36.9032 105 98 89
-22.2252 -34.9351 28.6114 96 110 156
-38.9613 12.1905 37.7086 132 113 91
-39.7892 10.6436 37.5671 125 97 70
-40.8407 2.90615 36.4735 115 106 77
-21.6386 -34.2425 28.196 88 112 151
-23.9376 -34.1483 28.4979 111 128 151
-39.872 9.48056 36.9772 115 84 63
-40.7825 3.49939 36.1412 110 103 73
-38.2972 13.3254 36.9754 120 103 78
-38.8483 12.0837 36.8469 129 111 87
-39.6075 10.4526 36.6826 122 98 73
-40.9349 3.05171 35.6701 123 109 77
-41.4916 2.43911 35.6426 111 95 90
-26.2062 -31.9078 28.2403 110 123 135
-40.9599 3.1115 34.8445 124 111 78
-41.5166 2.4989 34.817 110 95 88
-38.3343 13.4142 35.7491 127 101 72
-39.4371 11.5655 35.5924 128 100 69
-39.7149 9.34801 35.2707 116 77 63
-40.8982 4.99864 34.7213 108 99 74
-37.9372 16.7388 35.8204 69 77 138
-38.8979 12.8372 35.3131 128 99 68
-39.7956 10.1003 34.9861 118 79 63
-39.7963 9.46151 34.8829 110 70 60
-39.8065 11.4044 34.7829 121 85 66
-40.0173 8.4627 34.3329 79 43 52
-40.7883 3.59309 33.6426 127 113 77
-37.9585 14.2745 34.5948 110 87 74
-38.8538 12.8136 34.4732 126 95 69
-40.4442 8.35603 33.954 64 36 58
-37.9142 14.2513 33.7551 95 75 64
-38.7406 12.7072 33.6103 125 92 67
-40.6875 3.51152 32.3582 128 99 68
-37.9972 15.6269 33.5771 69 70 96
-40.5726 4.04877 31.5926 121 92 65
-40.9394 1.25607 30.7596 76 63 102
-40.7391 2.98176 30.5989 84 48 56
-34.8929 20.7912 32.3639 73 67 136
-38.1149 15.1961 31.8632 132 115 85
-40.5395 4.7007 30.4387 83 50 60
-38.0598 16.4046 31.6431 129 111 82
-40.9043 2.56313 29.7112 63 42 74
-34.1107 24.2444 32.0103 75 93 167
-38.9653 11.8091 30.5803 120 108 82
-30.91 26.7584 31.1735 69 82 161
-38.0954 15.2321 30.2073 128 104 72
-38.7832 12.8909 29.9057 134 125 92
-34.1516 24.9518 30.8989 76 94 167
-37.6997 18.5455 30.2997 101 88 69
-40.7434 3.72493 28.2051 44 59 117
-41.3736 1.8971 27.9817 79 86 116
-37.5054 18.3314 29.8231 116 94 70
-39.6496 -2.87463 26.5123 74 85 139
-40.9148 -3.93686 26.506 81 106 162
-40.6285 4.26219 27.4412 54 69 130
-40.8376 3.87032 27.4033 52 72 111
-40.5036 -2.4512 26.2785 66 88 153
-38.1449 15.3504 28.5743 98 60 59
-41.5472 2.80954 26.9006 110 110 116
-40.3777 -3.25743 25.6995 80 101 165
-40.8576 5.87085 26.91 51 51 111
-40.7918 4.49282 26.6642 57 68 109
-40.3227 -4.64092 25.0301 88 106 165
-40.4783 -5.76323 24.4336 96 121 174
-35.1769 23.1449 28.2584 70 84 110
-38.044 15.2748 27.3018 104 60 57
-38.6627 12.2138 26.8598 136 116 79
-39.6994 10.2761 26.6709 135 103 72
-41.7942 2.50688 25.623 111 104 129
-40.6284 -4.22686 24.2948 77 104 162
-12.036 40.1255 27.517 84 103 152
-38.8823 11.8562 26.4122 137 114 77
-41.3857 3.97013 25.3988 122 118 96
-37.1058 16.7098 26.5875 114 71 59
-41.4004 3.35132 24.8736 136 117 97
-41.8193 2.56672 24.7966 114 104 120
-40.7236 -4.07814 23.4849 86 99 155
-40.4462 -5.76111 23.1527 91 113 170
-12.4873 40.035 26.7306 77 84 122
-36.7792 18.8464 26.4987 128 92 68
-38.6998 11.6658 25.5194 132 110 75
-39.5302 9.47429 25.2554 125 97 66
-40.529 -5.64201 22.7596 84 108 165
-40.8129 -6.61913 22.6295 96 120 166
-37.1306 16.7689 25.771 113 68 67
-41.7802 1.23773 23.7179 81 85 135
-40.7474 -3.35549 22.7656 68 86 149
-31.3521 -26.9719 17.284 167 167 131
-35.9083 19.104 25.5901 131 101 70
-38.8628 11.2542 24.6364 129 114 83
-41.5092 2.87725 23.5458 120 100 98
-40.2009 -4.69452 22.0275 79 95 159
-40.4842 -5.67017 21.8969 86 103 160
-40.9785 -6.38036 21.8433 84 102 140
-30.0389 -25.8408 16.8503 111 122 143
-29.568 -27.8544 16.4289 128 138 130
-35.4344 18.564 25.0117 130 99 72
-41.3856 2.08434 22.9679 109 96 125
-40.6328 -3.47114 21.8801 86 100 146
-27.4749 -28.4175 15.5821 105 114 153
-28.9732 -28.6073 15.7652 130 143 133
-35.3802 19.1406 24.6905 129 105 75
-35.3075 18.4305 24.5544 131 103 75
-41.1904 1.85576 22.4782 107 91 129
-41.1943 0.549069 22.2478 86 100 160
-40.3666 -4.45697 21.2427 81 91 142
-29.282 -28.9008 15.3124 151 158 137
-38.9001 12.6172 23.6316 112 92 67
-40.0803 7.00117 22.8077 115 108 79
-40.6626 -5.40167 20.693 89 102 147
-28.5518 -28.4151 14.8462 125 132 143
-29.8945 -28.801 14.9735 162 167 139
-35.5381 18.105 23.6991 129 106 78
-36.4339 17.2773 23.683 119 82 65
-38.705 11.1226 22.9205 126 108 77
-39.3971 10.0413 22.8295 134 123 91
-40.8652 2.7883 21.754 124 89 78
-40.8686 1.4841 21.5225 104 88 119
-40.7312 0.656941 21.3552 87 85 134
-40.7407 -3.29244 20.654 73 89 131
-40.6022 -4.13124 20.4845 74 91 136
-27.5148 -28.3222 14.2649 110 121 148
-38.9939 13.3945 22.9508 85 57 53
-40.9541 0.292228 20.9007 101 119 160
-40.9 -5.74038 19.8161 84 104 164
-31.2522 25.5879 23.5746 138 111 93
-36.5281 17.4183 22.8909 118 79 65
-40.4031 2.89738 20.8633 123 93 61
-40.8325 -1.82353 20.0815 108 128 176
-40.8358 -3.14404 19.8456 89 105 152
-40.4887 -4.91174 19.4779 87 107 153
-26.8615 -28.4248 13.2566 94 106 132
-27.5414 -28.2586 13.3868 98 113 136
-28.5917 -28.3199 13.5308 120 133 145
-29.9343 -28.7059 13.6599 157 160 130
-38.0567 17.3563 22.6908 82 43 55
-39.0191 10.2678 21.5605 124 99 74
-39.9936 5.65939 20.8773 134 123 88
-40.8468 -2.45301 19.5469 111 131 177
-31.2769 25.6469 22.7603 136 109 98
-38.7547 11.2415 21.2784 102 68 58
-39.7251 8.57335 20.9422 129 114 79
-40.9223 0.295671 19.6292 108 125 169
-40.9275 -1.67568 19.2749 115 138 184
-40.8628 -3.74557 18.8923 111 136 176
-26.8113 -28.4597 12.3483 97 111 147
-27.4914 -28.2934 12.4795 99 110 144
-28.6182 -28.2564 12.6539 107 117 136
-29.3617 -28.7104 12.6828 132 136 125
-35.6057 19.5099 21.8841 138 123 92
-38.5606 13.5685 21.2522 70 43 54
-38.8365 12.6291 21.1237 79 49 52
-38.6284 10.4647 20.7014 101 66 56
-39.3213 9.38176 20.6093 120 96 73
-40.5267 -4.82086 18.2229 119 139 181
-40.6685 -5.30864 18.156 120 138 176
-38.7109 13.1286 20.7784 73 47 53
-38.918 12.1054 20.624 83 54 53
-40.9475 0.35581 18.7987 104 119 156
-41.4401 -1.00405 18.6262 118 139 180
-40.8933 -5.67764 17.6969 121 132 175
-26.6071 -28.6918 11.3807 85 97 144
-28.6448 -28.1929 11.777 92 102 124
-40.2573 2.78917 18.7146 120 97 89
-40.9797 -6.89222 17.063 99 102 158
-27.378 -28.3948 11.1031 79 92 134
-38.7357 13.1879 19.9593 70 49 56
-38.8737 12.7181 19.8945 81 60 65
-40.6851 3.98501 18.5757 134 110 109
-41.6089 -2.08532 17.6083 109 118 164
-28.6046 -27.5098 11.0029 76 93 126
-30.5439 -27.8297 11.2381 134 135 114
-40.9105 2.32054 17.8846 85 64 84
-40.5101 -6.12033 16.2795 65 83 141
-40.724 -7.18872 16.1165 66 82 137
-29.892 -27.2469 10.8007 96 109 116
-30.6328 -27.7002 10.8303 133 135 112
-38.98 12.8901 18.6912 99 78 89
-39.9541 6.37488 17.6411 136 125 115
-40.8628 3.59656 17.2688 86 76 98
-40.7462 -5.79268 15.5226 60 71 133
-40.6102 -7.97664 15.0997 59 72 139
-29.7669 -27.3792 9.86691 94 106 114
-30.5081 -27.8325 9.89701 130 133 112
-22.5787 34.9356 19.822 104 83 89
-32.0122 27.2169 19.8478 134 102 103
-33.1194 26.0414 19.3877 114 85 96
-39.9791 6.43464 16.8158 105 89 95
-29.7934 -27.3158 8.99198 91 108 113
-22.8781 34.6923 18.9935 119 99 101
-41.737 2.76572 15.9866 136 129 94
-40.9107 -0.233431 15.3014 117 90 65
-41.4083 -2.91519 14.8803 61 75 135
-40.9246 -5.52395 14.3207 61 80 148
-30.1773 -27.5109 8.56987 114 127 115
-33.144 26.1002 18.5757 99 74 92
-40.9984 -2.09084 14.5456 67 58 94
-39.8771 7.00011 15.645 96 84 91
-40.7998 -1.66386 14.17 77 53 73
-30.6499 -27.5764 7.74078 127 132 114
-41.2349 -2.42746 13.6707 56 54 107
-22.9274 34.8104 17.3637 89 78 105
-33.1112 26.109 17.3319 74 67 85
-41.997 2.49265 14.2913 118 97 71
-40.7537 -1.03209 13.4328 88 64 72
-30.6009 -27.6108 6.83616 131 133 108
-41.6109 -2.58859 12.8507 54 71 133
-35.9324 20.7412 15.9373 117 108 126
-40.0666 6.64381 13.9273 82 95 136
-40.9899 -1.36819 12.5585 61 45 76
-29.8862 -27.0941 5.92974 91 103 114
-30.6274 -27.5475 5.96163 133 133 114
-40.9882 3.89608 13.1326 149 152 137
-29.5372 -26.1207 5.61319 74 91 125
-30.497 -26.9961 5.6001 117 126 116
-40.651 4.79639 12.8286 141 148 141
-41.7855 -1.66334 11.7811 56 60 120
-41.9993 -2.7195 11.6143 56 69 131
-31.9275 -26.5403 5.47049 136 139 111
-38.5769 14.4884 13.9239 76 82 147
-39.8213 10.8926 13.4376 87 96 141
-30.7501 -26.6402 4.8182 114 129 114
-39.9086 6.50847 12.1944 84 100 150
-41.7412 -1.69053 10.9206 54 69 134
-41.8854 -2.83475 10.7249 59 77 148
-25.0289 -28.322 3.12887 61 79 128
-29.2064 -25.7987 4.28538 69 85 126
-30.7029 -25.2802 4.62592 84 100 122
-31.5915 -25.539 4.71967 120 130 115
-37.9141 16.8864 13.443 65 81 174
-40.8287 4.40839 11.5195 147 146 130
-40.969 3.93021 11.4504 147 140 121
-28.3158 -26.2225 3.61438 65 84 127
-31.4613 -24.9905 4.36002 100 113 109
-38.4073 14.9634 12.7368 78 91 160
-41.3339 2.43696 10.8007 127 97 84
-29.5362 -25.3462 3.53506 74 92 120
-19.5071 37.861 13.6584 116 87 84
-29.7805 28.5976 13.5453 90 102 163
-30.6739 27.771 13.5314 79 82 138
-27.216 -26.1927 2.54807 64 83 132
-30.9757 -24.1846 3.549 80 97 105
-37.8821 16.8932 12.1906 63 77 152
-38.1549 14.0581 11.6862 58 77 140
-40.2337 8.25626 10.9031 64 84 149
-28.4318 -26.0298 2.33157 70 87 116
-31.1392 -23.96 3.17563 85 99 99
-37.8945 16.9228 11.7821 65 79 173
-41.2309 3.00651 9.62772 129 99 85
-40.9552 2.00942 9.38876 109 78 77
-40.8874 1.26885 9.2338 84 55 68
-27.7679 -26.1613 1.75062 68 83 115
-38.2501 15.4679 11.1411 80 86 171
-38.1105 14.0347 10.8389 78 92 164
-41.1741 2.95049 9.18537 121 91 83
-40.8287 1.86659 8.91728 101 71 78
-41.2514 0.422136 8.70569 55 55 108
-18.9894 37.9729 11.9309 74 61 108
-40.1328 8.17691 9.61167 84 115 174
-40.9074 3.28785 8.78492 130 101 93
-37.8625 16.9297 10.5291 60 75 150
-38.1373 15.995 10.3916 60 76 148
-41.0605 2.83833 8.30009 109 78 82
-40.5755 1.58068 7.97311 90 65 82
-33.8958 23.5427 10.7501 101 127 195
-38.2873 15.5567 9.91374 67 88 167
-40.227 8.32102 8.81575 87 105 166
-40.8631 3.26184 7.92795 117 85 85
-40.8698 0.647129 7.41537 57 53 89
-40.8824 0.677237 6.99959 61 55 90
-33.8507 23.5215 9.90776 98 123 178
-34.7444 22.6949 9.89463 92 107 150
-37.6934 17.4034 9.34468 82 96 168
-37.8306 16.9366 9.27551 84 94 169
-40.1952 8.32609 7.55157 76 97 141
-37.649 17.3808 8.49974 82 96 150
-37.8554 16.9958 8.45817 75 87 147
-38.1987 15.5107 8.22118 71 84 143
-39.929 9.30416 7.28081 85 105 147
-40.9133 3.38186 6.27059 96 68 63
-33.5432 23.8321 8.67111 94 121 175
-34.6423 22.6226 8.61683 75 96 143
-40.151 8.30134 6.69896 92 98 128
-38.2235 15.5699 7.40261 84 100 142
-39.8149 9.83731 6.52838 93 88 119
-33.6332 23.3478 7.75833 92 112 150
-34.1133 22.6622 7.7031 97 109 146
-37.4786 17.2241 7.18927 94 96 138
-41.1571 4.37959 5.24476 107 79 59
-39.5597 -1.54676 3.78367 67 63 109
-36.8046 18.9561 7.00465 83 95 139
-38.3174 15.7115 6.61245 79 79 111
-39.7706 9.8129 5.67663 79 77 105
-39.9799 8.78097 5.5052 82 82 88
-40.7489 5.84227 5.04671 112 94 78
-39.9955 -2.31268 3.27839 62 81 143
-29.7538 28.8025 7.35705 98 105 141
-33.588 23.3265 6.91448 89 96 124
-40.8339 4.66089 4.40191 120 92 66
-23.9628 33.333 6.85538 96 101 125
-32.7807 24.8868 6.67413 71 76 108
-36.7601 18.9339 6.15957 87 88 100
-38.4108 15.22 5.69462 73 73 99
-40.8464 4.69086 3.98811 121 89 65
-39.9506 -2.34011 2.41215 69 76 135
-24.4538 32.6782 6.39156 85 87 103
-33.9533 22.5387 5.9862 73 75 105
-36.9785 18.5789 5.709 84 88 109
-38.8368 10.6508 4.42495 93 90 83
-23.5682 33.5385 5.99556 87 77 73
-24.4661 32.7078 5.98325 86 83 95
-31.9109 25.7732 5.8713 88 78 83
-32.8702 24.4032 5.76006 73 60 72
-33.5552 23.3348 5.66229 75 72 100
-37.747 16.9868 5.10271 87 84 96
-35.8322 19.7692 4.9177 111 111 99
-38.7229 10.5426 3.54296 121 109 83
-39.7681 6.00887 2.80182 132 117 95
-28.9919 29.8563 5.36175 90 69 74
-32.69 24.8449 4.98669 86 61 89
-33.9206 22.5468 4.73302 70 75 122
-37.3549 15.921 3.98175 123 109 80
-37.9751 14.1256 3.72371 86 60 83
-31.8075 25.7021 4.59097 101 69 77
-36.6795 17.6588 3.80081 135 122 87
-38.6782 9.87631 2.55806 123 108 102
-35.388 20.5454 3.74813 130 126 102
-35.8667 19.2292 3.56229 134 127 101
-37.9306 14.1022 2.87356 62 42 68
-38.2767 13.8805 2.88919 56 45 79
-39.6659 6.57612 1.6338 125 123 97
-27.4234 29.9841 3.8635 110 71 66
-38.3555 10.1579 1.71736 120 109 118
-36.9215 16.73 2.39914 122 112 141
-35.7005 20.331 2.50903 131 124 123
-35.9064 19.9467 2.46618 129 121 125
-38.4501 10.3017 0.922289 85 86 73
-36.9463 16.7893 1.57969 108 93 101
-39.2888 8.48905 64.4916 69 50 56
-40.4576 0.502023 62.9084 39 51 122
-37.2619 15.2365 63.8006 91 50 61
-40.063 7.60615 63.2352 103 77 55
-39.8975 1.64341 62.565 45 44 106
-35.26 17.275 63.4195 114 66 74
-40.2707 8.32162 62.9229 94 69 57
-40.8094 -0.767466 61.9743 58 83 137
-41.0702 6.90167 62.4334 105 75 57
-39.683 3.09256 61.8757 87 51 57
-39.4865 2.39502 61.7792 73 42 57
-39.9241 1.70002 61.7454 49 37 87
-40.1921 9.34005 62.206 81 52 52
-40.5044 9.09172 61.7987 98 67 57
-40.6392 8.67901 61.7661 101 72 58
-40.4978 7.51064 61.6218 104 77 55
-41.0145 6.88919 61.6041 106 78 56
-40.9988 -1.07298 60.3002 86 112 160
-41.3007 -1.34988 60.2995 98 126 175
-32.0588 23.5967 61.7522 65 76 109
-40.4419 7.49826 60.7919 107 77 61
-41.314 -1.32154 59.8893 101 126 175
-38.6033 9.66984 60.438 102 67 60
-40.4714 4.9018 60.0906 98 63 59
-32.2179 23.2436 60.9079 68 71 118
-31.4837 25.2511 60.6498 65 96 170
-40.4779 0.154972 58.7263 96 96 106
-32.0625 24.1826 60.178 69 94 179
-40.0661 6.74367 58.6081 99 64 60
-41.215 -1.32194 57.8045 69 85 161
-39.7549 -6.35508 57.0752 67 86 141
-39.747 -7.99168 56.8869 65 84 142
-32.0539 23.6999 59.3011 73 96 174
-39.7378 -6.89568 56.5929 64 86 145
-39.8137 -8.46098 56.4209 60 76 139
-32.2206 24.8693 59.0433 75 103 175
-32.2838 23.3837 58.8785 73 99 175
-38.1548 13.0662 58.3104 58 33 68
-39.957 -4.52268 56.4715 60 72 144
-39.8961 -5.657 56.3341 54 72 138
-39.9932 -5.55599 55.9382 59 77 132
-39.9551 -7.75957 55.6788 66 85 157
-32.7141 24.7755 58.2655 80 108 175
-39.9002 -4.53782 55.6287 63 82 126
-40.0903 -5.45503 55.5424 64 81 121
-40.2806 -6.3734 55.4561 69 87 135
-32.9435 24.4601 57.8438 81 108 176
-40.9796 -0.903127 55.7522 68 82 150
-40.0504 -4.93162 55.1814 65 82 125
-33.1387 23.6066 57.3553 82 111 180
-38.187 14.2028 56.803 60 33 64
-41.1697 2.47847 55.7539 125 114 87
-40.7142 -1.64973 55.2205 71 87 162
-40.3214 -3.06224 55.0123 70 91 151
-40.3376 -5.74826 54.6993 73 86 140
-40.3608 -6.81232 54.5771 79 93 147
-33.0834 22.5566 56.8157 82 111 178
-36.084 17.1959 56.514 62 37 71
-39.101 9.22017 55.9064 100 65 62
-40.8404 -0.98842 54.8963 78 86 153
-40.024 -4.38015 54.4079 70 87 148
-40.4511 -8.34753 53.9881 82 108 166
-40.7796 -9.69518 53.8656 100 124 174
-33.165 23.6626 56.5447 82 112 181
-41.332 2.11811 54.9018 120 104 76
-40.7707 -1.0311 54.4681 83 85 147
-40.1512 -3.71377 54.0831 71 82 143
-40.1742 -4.77383 53.9605 77 93 154
-40.3644 -5.69119 53.8731 71 90 151
-40.304 -6.828 53.7323 61 82 147
-33.7755 20.564 55.8352 85 110 181
-40.4449 -2.90522 53.7943 73 86 140
-40.2034 -7.44189 53.2299 78 93 149
-20.7017 35.1871 55.7036 64 46 67
-36.1235 17.28 55.2958 50 58 140
-39.0885 9.78646 54.7356 111 76 62
-40.4282 -3.44127 53.3119 76 99 148
-40.1865 -7.98368 52.7447 82 89 152
-34.7026 19.7842 55.0242 85 110 181
-36.086 17.7849 54.941 70 90 164
-40.4115 -3.978 52.829 70 92 148
-40.5183 -4.96608 52.723 69 89 135
-40.6252 -5.95588 52.6169 66 85 127
-40.5952 -6.52406 52.5457 68 85 132
-40.3373 -8.37956 52.2952 72 83 149
-39.0844 9.2926 53.8517 102 60 60
-40.4618 -1.76442 52.6826 72 84 157
-40.5982 -2.18468 52.6477 71 84 156
-20.4789 36.0909 54.5454 64 54 67
-36.3613 18.0395 54.1814 81 105 170
-40.2412 -4.63126 51.8965 64 77 153
-40.4314 -5.54854 51.8078 62 77 145
-40.5384 -6.53967 51.7008 56 75 142
-40.3944 -7.75161 51.5386 58 83 145
-39.5916 -12.2831 50.9024 60 83 138
-40.4052 -1.77892 51.8417 63 71 138
-40.4284 -2.83463 51.717 58 67 140
-39.4982 -11.2507 50.5947 59 84 158
-36.3876 18.0955 53.3702 87 107 168
-40.5784 -3.22718 51.2698 58 74 148
-40.5652 -6.48256 50.8739 65 85 149
-35.5346 19.4994 53.0315 93 115 182
-40.4551 -2.77772 50.8931 63 90 168
-40.3649 -4.47357 50.6765 68 89 165
-35.4647 19.4616 52.6081 94 116 183
-40.3621 -1.76499 50.5889 74 91 161
-40.6052 -3.17026 50.4458 80 94 171
-38.9555 11.3866 51.6179 120 87 68
-39.2986 9.04755 51.3717 75 41 58
-39.9437 0.575231 50.4098 76 54 73
-40.3917 -4.41655 49.8511 70 81 145
-40.6355 -5.82865 49.7068 57 72 133
-40.6891 -6.32421 49.6523 59 78 137
-39.3212 -12.4374 48.7433 64 87 149
-35.491 19.5176 51.7967 97 119 186
-41.1533 3.74829 50.5266 90 72 61
-40.2221 -1.85091 49.7286 57 71 148
-40.2985 -3.40047 49.5472 58 76 150
-39.1434 -11.4783 48.4182 71 88 164
-40.5253 -5.34882 48.9163 63 87 145
-40.853 -6.69036 48.7897 68 90 124
-40.7095 -7.90253 48.6232 70 87 123
-39.4328 -12.3053 47.9287 71 91 156
-35.2678 19.3761 50.9311 96 117 180
-40.1655 -1.86543 48.8864 71 86 164
-40.2418 -3.41536 48.7036 69 84 166
-39.2238 -11.923 47.529 86 108 155
-38.9563 11.9792 50.044 122 87 69
-41.1931 3.83297 49.3006 124 112 85
-39.9441 1.17833 48.8209 116 92 72
-40.7127 -6.77878 47.9248 76 105 165
-40.9037 -7.69921 47.8333 81 112 169
-39.9206 -9.64993 47.473 87 120 169
-40.1319 -2.93686 47.9148 84 94 155
-40.7026 -5.68596 47.641 98 122 172
-35.0074 19.7387 49.7116 96 118 185
-40.671 3.95746 48.4252 122 104 70
-40.6155 -3.04278 47.5427 83 96 150
-35.3862 20.5706 49.4511 97 118 187
-39.3258 12.3335 48.8982 109 66 69
-40.246 10.4751 48.7773 66 32 51
-36.0346 18.0069 48.7972 90 82 90
-40.6679 3.45776 47.5335 119 95 77
-40.7491 -3.97242 46.6074 82 107 170
-40.8263 -5.52791 46.4209 97 121 173
-40.7964 -6.09581 46.3457 98 122 173
-35.0138 19.2807 48.4208 93 117 183
-40.3021 11.0792 48.0373 64 37 54
-20.8517 -36.7036 39.5933 137 150 144
-39.478 13.0314 47.7712 97 58 65
-39.6125 12.6199 47.7357 89 50 66
-40.1806 11.5193 47.6666 66 37 55
-40.45 10.6949 47.5955 62 36 48
-40.6925 -3.98744 45.763 91 98 143
-40.8531 -5.47085 45.5947 79 83 129
-40.4587 -6.89862 45.3646 72 78 131
-36.0741 18.091 47.5788 74 77 114
-40.625 3.47273 46.2864 121 96 71
-39.6689 13.2219 46.9971 79 45 59
-40.4238 11.231 46.8376 60 44 56
-40.683 -6.12683 44.6528 76 100 165
-20.9881 -36.528 38.2944 138 151 149
-36.1005 18.1472 46.7665 85 93 143
-40.1678 12.0828 46.503 56 39 65
-40.486 3.38955 45.4289 118 87 67
-40.8933 -5.38525 44.3555 95 111 159
-40.6534 -9.94865 43.7403 109 136 174
-35.2134 19.0104 46.3534 91 113 185
-40.3449 -6.93002 43.6687 85 90 141
-20.8296 -36.6359 37.3682 139 150 147
-39.3272 13.5159 45.7581 63 39 76
-40.1644 11.592 45.6167 72 55 62
-40.7531 -5.47302 43.4894 67 80 150
-35.1895 19.5431 45.5958 92 112 185
-40.0429 12.032 45.2465 58 48 62
-40.6787 0.403225 43.8222 63 55 112
-40.288 -6.94573 42.8202 72 93 161
-40.5561 -9.43684 42.5321 105 129 175
-39.4056 13.0933 44.8907 44 43 95
-40.355 -7.41447 42.3483 100 111 158
-36.6619 -17.2719 40.5903 72 90 144
-40.0998 6.86095 43.7567 123 95 65
-40.7934 -5.38739 42.2496 91 106 156
-40.3382 -7.9568 41.8555 93 98 145
-39.9852 8.89118 43.5935 128 107 82
-40.4423 -6.21752 41.6765 74 87 150
-40.6568 -8.20654 41.4443 62 78 146
-37.3763 -16.6033 39.9174 104 123 162
-39.3628 13.1102 43.6526 64 67 107
-39.7954 6.64135 42.8602 123 83 68
-40.898 0.658102 42.2195 47 56 124
-35.906 18.6499 43.5145 81 101 176
-39.7718 10.3249 42.9281 132 104 77
-39.9592 9.4297 42.8349 130 99 75
-39.869 7.77574 42.6051 131 96 72
-40.9054 -0.926091 41.5957 66 81 154
-40.4692 -6.16035 40.8487 82 104 147
-40.6837 -8.14927 40.6151 94 109 151
-39.5815 8.08144 42.1937 123 85 64
-40.6264 -4.92278 40.6137 88 115 176
-36.2646 18.9701 42.7813 80 100 176
-39.3987 7.41927 41.6677 113 68 61
-41.3764 0.0468357 40.9539 91 107 166
-40.6163 -3.8329 40.3381 90 105 166
-40.7368 -4.79339 39.808 82 89 142
-39.5305 -12.3982 38.6346 94 114 169
-39.3463 13.1832 41.6014 75 81 96
-39.9896 10.5733 41.3397 123 88 66
-40.177 9.67868 41.2456 118 75 61
-39.2899 7.89113 40.8874 111 63 61
-40.8581 1.77795 40.2828 39 50 130
-40.81 -3.63194 39.5542 71 90 161
-26.6713 30.5826 41.8027 93 121 182
-40.2428 9.22492 40.7809 117 68 61
-40.9247 1.31746 39.8143 39 58 137
-40.812 0.686945 39.7146 46 66 143
-39.5265 -12.9188 37.7183 91 95 139
-22.8643 -34.5919 32.5587 140 153 146
-23.0984 -34.9638 32.5406 152 160 144
-40.8069 -4.141 38.6488 102 111 161
-38.585 -12.6304 37.2056 77 89 150
-40.5999 -3.76234 38.2529 91 103 147
-38.7902 -13.5358 36.6878 86 110 157
-22.9855 -34.4478 31.7056 139 148 131
-40.0802 7.03338 39.2229 88 46 59
-40.7455 1.75054 38.6 45 60 117
-38.6871 -14.1627 36.1646 108 133 169
-22.2975 -33.3021 31.3214 112 125 147
-39.9732 10.646 39.2841 131 96 74
-39.748 9.40995 39.0852 124 81 63
-40.4308 8.92362 39.1137 111 65 60
-40.8234 -2.99593 37.5506 77 95 158
-38.392 -13.8539 35.7411 108 134 171
-38.6691 -14.7152 35.6626 113 135 171
-34.364 -21.3389 34.1686 114 130 156
-22.6386 -33.5604 30.889 114 126 141
-23.4332 -34.592 30.8589 147 149 128
-38.9304 12.9477 39.0397 130 111 92
-40.4441 8.95176 38.7061 113 70 63
-40.1895 7.15878 38.4267 85 46 64
-40.9971 3.06421 37.9815 52 66 89
-35.3829 21.0089 39.2327 128 135 190
-40.762 2.8824 37.5084 67 73 65
-40.6196 1.69478 37.3263 88 87 78
-38.4192 -13.796 34.9034 109 125 173
-34.3043 -21.3583 33.2959 97 111 157
-22.5743 -33.5831 29.988 112 129 157
-35.396 21.0369 38.8269 144 146 190
-40.2986 7.28408 37.6308 83 44 64
-40.5199 1.09267 36.8135 107 95 101
-40.6563 0.673479 36.7752 96 90 120
-39.1 -10.4264 35.0359 74 94 130
-23.2419 -34.1295 29.5623 134 143 134
-36.0086 20.508 38.4291 88 80 147
-40.99 -2.2458 36.0042 74 84 139
-40.2251 -6.15221 35.3594 70 83 156
-40.3857 -7.64488 35.1769 75 96 156
-34.0697 -21.5338 32.3767 92 114 148
-36.1553 20.1264 37.9859 67 68 139
-37.7943 15.7423 37.6137 72 87 147
-40.3251 7.34049 36.814 78 42 62
-40.4868 0.027348 35.8284 87 95 138
-40.9498 -1.72502 35.6524 76 93 137
-40.8368 -2.36049 35.5488 76 93 135
-40.4966 -4.27344 35.2368 82 93 148
-40.292 -6.62071 34.8841 80 89 159
-40.3992 -7.61622 34.762 79 93 160
-40.3689 -8.18798 34.6789 77 95 158
-21.5908 -33.248 28.5609 93 110 144
-22.5242 -33.5756 28.648 106 119 141
-40.6196 2.297 35.744 128 108 73
-40.3406 1.52629 35.5977 120 102 78
-40.7071 -3.53419 34.9498 76 93 140
-34.3595 -21.2408 31.5959 97 114 153
-40.805 4.06843 35.6002 123 110 83
-40.5667 -0.406843 34.945 82 87 159
-40.1888 -4.50538 34.3221 70 87 141
-40.3422 -7.63208 33.9101 67 83 152
-22.5526 -33.515 27.771 111 128 140
-37.9166 15.8932 36.4155 72 83 131
-40.5633 2.28342 34.9015 130 110 79
-40.3372 1.02265 34.6934 107 90 99
-39.7353 -5.94871 33.2157 55 74 147
-39.8727 -6.37327 33.1762 63 82 155
-40.0941 -6.72498 33.1591 69 88 161
-34.5754 -20.9968 30.3679 102 121 152
-22.908 -33.7429 26.9008 134 144 144
-23.4687 -34.403 26.8897 155 155 129
-41.0749 6.9957 34.8032 57 40 52
-40.4471 1.15012 33.893 106 88 90
-40.5535 0.169452 33.7711 83 84 132
-39.8327 -5.84732 32.8234 62 83 153
-40.4665 -7.47295 32.6877 71 91 160
-40.9095 -8.17655 32.6535 76 100 146
-23.3415 -33.9176 26.4946 139 143 135
-37.8937 14.8867 35.0338 92 83 81
-40.4412 9.64705 34.6693 104 58 66
-40.6033 2.36848 33.67 130 103 75
-40.5236 -3.60754 32.8185 67 86 128
-39.8235 -4.75291 32.5553 69 86 131
-40.0675 -6.17025 32.3917 75 92 156
-40.0275 -5.64461 32.0393 76 88 138
-40.3862 -6.42029 31.9826 81 90 151
-40.7988 -7.69422 31.8635 85 105 165
-37.6577 -16.5203 30.1583 117 134 171
-23.8812 -33.9787 25.676 147 147 128
-37.8685 15.4217 34.2801 79 79 105
-40.4639 2.2846 32.8047 129 93 68
-23.9329 -32.1712 25.4949 104 115 143
-24.2584 -32.4591 25.5022 114 123 135
-40.8977 -3.23413 31.6693 83 101 161
-40.1991 -4.37763 31.4036 86 104 162
-40.2222 -5.44208 31.256 85 97 153
-38.9408 11.6293 33.0745 121 75 67
-40.373 -5.83742 30.8018 76 89 157
-38.6176 -14.5073 29.3068 90 103 144
-23.1737 -32.2366 24.4855 90 109 147
-24.4708 -32.2333 24.679 108 123 135
-33.2678 25.2512 33.7574 141 141 175
-40.6699 2.51025 31.6175 111 69 65
-40.6141 -4.5267 30.6046 95 107 170
-40.8826 -7.00877 30.2904 83 102 158
-38.663 -13.8967 28.9752 93 108 155
-38.6846 -14.9852 28.8231 84 100 139
-41.0501 4.97682 31.6113 127 92 66
-40.9379 -3.1486 30.4309 89 101 138
-24.0818 -31.9677 23.772 110 122 147
-38.1895 -12.6228 28.2363 92 120 179
-22.846 -32.4776 23.0688 100 118 145
-38.021 18.2426 32.2329 79 80 94
-40.8813 -3.16344 29.5823 73 98 158
-40.9886 -4.1521 29.4561 75 104 159
-38.2031 -12.5938 27.8174 97 121 181
-38.7038 -13.8099 27.7181 100 123 166
-38.8107 -14.8227 27.5884 90 111 149
-34.8706 20.9236 31.729 69 81 162
-22.6891 -32.5831 22.1403 100 113 155
-24.4497 -32.1651 22.4689 115 126 140
-34.5999 25.3491 31.9165 70 89 161
-38.2433 18.9721 31.5495 83 83 90
-40.9497 0.694477 29.3139 69 74 140
-41.2656 -3.87872 28.6992 94 120 179
-38.4539 -12.8912 26.9624 98 123 177
-38.731 -13.752 26.88 100 118 167
-38.9231 -14.6891 26.7736 89 101 148
-38.6357 -15.499 26.6122 84 97 146
-39.8361 7.75375 29.7518 125 104 75
-40.8267 1.14225 28.9427 52 62 116
-37.7643 -12.3767 26.5061 97 123 178
-24.1527 -31.8168 21.5868 106 117 147
-40.461 2.98669 28.7379 42 43 96
-40.8934 0.680533 28.4683 66 85 148
-41.3758 -3.74963 27.8966 91 116 173
-40.9245 -1.96246 27.669 85 101 171
-40.8113 -2.59895 27.5583 85 103 167
-37.6208 -12.4688 25.6194 96 122 175
-38.8568 -13.59 25.6471 97 120 166
-40.8667 1.22744 27.7093 82 93 122
-40.9201 0.73735 27.6457 88 94 146
-40.8783 -3.06421 27.0814 80 92 156
-40.9856 -4.05296 26.953 83 104 168
-38.924 -14.0669 25.1623 91 107 149
-35.4975 23.5779 29.7412 70 86 165
-40.8861 2.86395 27.5359 65 75 85
-40.6477 -1.62722 26.8375 71 83 153
-37.5096 -11.9804 24.8225 98 124 181
-38.7138 -13.6826 24.7604 97 111 160
-38.9912 -14.5443 24.677 79 94 131
-27.8287 29.4713 28.9941 79 100 171
-36.9292 19.5791 28.9646 139 109 90
-37.1141 18.6927 28.8629 133 101 79
-38.9861 11.3499 28.0732 144 128 95
-39.0292 9.28202 27.7747 127 98 71
-40.8934 1.28423 26.8871 91 95 125
-41.0002 0.303674 26.7592 79 91 169
-40.8041 -0.40049 26.6244 67 88 165
-37.747 -12.3069 24.386 97 122 176
-37.5377 14.8955 27.9551 100 62 61
-38.6986 11.6563 27.6589 144 128 97
-38.9687 10.8279 27.5789 138 120 85
-40.6445 -2.13485 25.9241 79 101 170
-40.799 -5.24763 25.4876 94 119 179
-38.741 -13.6247 23.9222 97 115 172
-38.848 -14.6375 23.7891 87 105 160
-34.8049 24.6278 28.5532 63 80 156
-41.252 1.62322 26.1595 97 94 117
-40.8843 -0.835297 25.736 89 99 160
-40.6045 -1.61321 25.5761 89 100 160
-37.3795 -12.0434 23.5154 94 121 175
-38.2538 -12.3795 23.6042 95 122 171
-36.6371 19.3997 27.6549 140 109 85
-36.688 18.9232 27.592 137 102 77
-38.9644 10.3335 26.6753 136 113 77
-41.0699 0.950099 25.6131 92 95 140
-38.6195 -14.8063 22.8756 85 99 140
-40.8994 3.49378 25.5482 116 119 93
-41.1958 1.60949 25.3141 95 92 113
-37.6306 -12.3411 22.6593 95 121 176
-38.3343 -12.827 22.6993 96 122 173
-38.6115 -13.6884 22.615 93 114 162
-41.0431 1.4968 24.8555 95 92 108
-40.9305 0.865479 24.7428 92 100 139
-41.0077 -0.678686 24.5238 72 94 146
-40.5612 -1.59921 24.3141 73 94 151
-28.2485 29.8961 26.6403 69 86 159
-35.9754 20.993 26.5498 147 123 97
-38.7861 10.7646 25.4664 134 108 76
-40.9793 3.06238 24.663 134 120 95
-40.7115 -1.99228 23.8601 81 104 147
-41.0929 -3.82456 23.6463 87 101 160
-38.2763 -12.8442 21.836 98 118 169
-38.2122 -14.0073 21.6509 94 113 147
-40.2665 7.26123 24.7635 73 44 75
-40.9334 1.97258 24.0745 122 105 103
-40.7611 0.218956 23.7822 83 91 152
-37.7569 -12.1792 21.4262 95 113 171
-38.2578 -13.3964 21.324 90 107 156
-38.5635 10.6165 24.5778 133 115 84
-38.9171 9.85473 24.5202 132 114 82
-40.7509 1.29957 23.5256 94 82 100
-40.8831 3.56547 23.4729 137 119 85
-40.9601 2.02934 23.2526 114 93 92
-40.6683 -1.97836 22.5972 69 86 142
-40.9497 3.10568 22.9971 136 106 76
-40.9675 0.446149 22.5956 80 96 170
-40.9868 2.08611 22.4307 112 87 99
-40.8741 1.45543 22.3159 91 78 119
-40.7785 -1.84972 21.7961 77 95 149
-37.9271 -15.8407 19.192 88 101 141
-40.9183 -8.75489 19.9214 82 95 144
-38.404 12.1655 22.2971 107 76 64
-40.8509 -7.67015 18.8104 106 108 160
-40.5888 -6.79075 18.4804 110 123 166
-39.2157 10.2738 20.4805 112 75 64
-41.0505 1.72484 19.462 78 68 101
-40.5618 -2.99675 18.6442 117 140 183
-40.7099 -7.75941 17.9283 82 105 160
-40.7188 -1.76477 18.4429 120 140 185
-40.3475 -4.24757 17.9921 119 139 179
-40.2235 -3.79536 17.6205 119 136 183
-40.5786 -1.85094 17.5657 119 127 171
-40.7157 -2.27304 17.5231 120 125 177
-40.0618 -5.54689 16.8968 97 108 161
-40.1666 -3.81038 16.7662 93 94 164
-38.4807 18.6351 19.5952 97 72 91
-40.6054 -1.79387 16.7394 76 64 93
-40.5453 -2.92587 16.5503 74 75 141
-40.4013 -4.1331 16.3348 69 79 149
-39.7829 -5.21025 16.0576 68 79 154
-39.8592 -6.77808 15.8234 65 80 161
-38.4012 17.0338 18.9155 99 84 100
-39.5973 -5.89807 15.4943 60 71 150
-39.9263 -7.24857 15.3378 60 72 142
-40.9304 3.87909 16.8566 92 82 101
-40.8054 0.0266875 16.2233 118 90 70
-40.4117 -1.38643 15.9302 89 59 71
-40.5721 -2.86872 15.723 56 55 118
-40.6257 -3.36366 15.6538 52 61 129
-40.3979 -4.64459 15.4106 54 66 146
-40.0777 -7.64601 14.8783 53 69 141
-39.7322 -9.5908 14.5092 54 71 144
-39.9455 -8.83881 14.2422 53 78 153
-39.8543 9.90303 16.7936 77 65 92
-40.7063 -3.80182 14.7564 57 73 152
-39.722 -5.739 14.2738 57 77 154
-39.8597 -6.16444 14.2301 56 78 154
-39.7822 -10.6121 13.5066 60 79 154
-39.8521 6.74755 15.8727 89 80 91
-40.2561 -7.98617 13.5861 59 77 141
-22.5255 34.7207 16.8668 79 69 107
-40.2232 -5.81519 13.5054 58 73 143
-41.5961 1.858 14.5629 131 110 83
-40.8364 -2.01615 13.8039 62 47 89
-39.5688 -10.7486 12.1724 53 77 154
-38.774 13.81 15.5683 131 117 126
-39.8548 10.499 15.2275 74 81 128
-39.6043 -9.03528 11.6059 58 80 148
-39.4576 -10.2621 11.381 59 80 141
-39.8813 10.5554 14.4106 89 116 174
-41.1382 1.51985 13.1712 102 85 68
-39.9924 -9.7593 10.7097 51 67 140
-39.9002 9.02453 13.3332 87 95 161
-39.6432 7.22439 12.9928 89 100 164
-40.749 1.22316 12.2148 117 89 69
-39.814 -8.80108 10.4092 51 70 141
-39.5512 8.22417 12.7223 79 82 145
-23.9854 33.3998 13.582 61 69 136
-39.9569 9.63354 12.611 63 74 145
-40.8888 1.91199 11.5152 123 98 82
-39.9255 -8.66966 9.6027 59 80 154
-39.4947 8.21187 11.8761 68 87 169
-39.6 7.24021 11.7357 75 95 169
-40.7059 1.23775 10.9518 95 66 66
-39.9928 -9.14222 9.11317 57 69 136
-23.9661 33.9305 12.8325 84 99 165
-40.7175 -6.30571 9.29051 55 72 133
-39.8681 -8.68586 8.74104 52 68 133
-39.831 9.58135 11.3309 75 80 138
-39.9288 7.01824 10.9251 88 106 163
-41.4412 -1.86616 9.7363 59 76 148
-41.4951 -2.3598 9.66465 56 70 139
-40.8284 -6.17533 8.48743 51 71 138
-39.8576 9.63786 10.5127 63 75 165
-40.9856 -4.93345 8.30071 54 75 150
-40.8853 -5.54733 7.75758 61 77 149
-39.8841 9.69438 9.69453 87 110 185
-39.0636 13.2428 9.71788 79 95 154
-40.8284 -5.56278 6.89946 53 64 122
-39.9107 9.75089 8.87635 84 96 144
-41.0682 3.28772 8.00977 111 78 80
-40.5263 2.88095 6.58149 99 66 69
-37.8853 16.5536 7.97598 75 96 151
-41.8136 4.5191 6.68837 97 67 70
-39.8115 1.22074 5.74278 86 52 57
-39.5319 8.99625 6.59234 93 95 134
-39.3491 -4.56325 4.24815 54 65 117
-39.4024 -5.06151 4.17361 53 66 120
-39.6485 2.19046 5.03583 93 69 60
-39.937 -1.33127 4.49055 55 55 105
-39.7223 -5.31267 3.76922 54 73 141
-39.3799 1.44382 4.43557 103 70 55
-39.5756 -3.79047 3.57771 58 75 142
-39.2917 -4.57851 3.38758 56 75 144
-39.4241 2.03525 4.12494 111 77 56
-39.323 1.42998 3.58044 108 70 51
-39.2965 -3.4532 2.73507 59 82 156
-40.7329 3.71003 3.83028 119 83 59
-38.1331 15.3115 4.90446 91 90 85
-39.2924 -3.96567 1.79941 56 86 145
-36.839 17.4163 4.59733 103 108 100
-39.6392 6.55645 3.26917 136 120 93
-39.9644 5.23206 3.104 136 110 86
-40.6765 3.69671 2.97887 118 73 55
-39.835 1.37803 2.41009 109 66 55
-40.7133 2.67535 2.38959 101 70 66
-38.7479 -1.14531 1.33451 94 81 67
-32.3885 23.7873 3.9881 64 50 102
-38.7299 -1.68434 0.814357 101 102 82
-39.5858 -3.66204 0.640488 89 86 83
-31.9657 24.5083 3.61332 60 38 83
-33.3085 22.9729 3.61399 53 62 115
-36.5964 16.7539 3.18587 138 112 90
-39.0493 -1.93574 0.41149 87 90 77
-39.9876 4.78723 1.35491 112 100 86
-39.4692 6.51835 0.716256 90 86 79
-40.0445 5.40251 0.636248 81 78 72
-40.3468 8.98796 63.9847 71 46 54
-40.4543 9.0633 63.5936 75 47 52
-39.8548 11.5024 63.3426 85 51 72
-38.3715 13.0217 62.9139 89 51 67
-39.6644 12.3317 62.989 91 54 71
-41.3893 -0.976543 61.9599 91 116 168
-39.7336 11.9305 62.5509 86 48 68
-40.4894 4.54897 61.9571 109 70 65
-39.2924 11.7343 61.6669 77 52 65
-41.05 3.61602 58.6476 70 41 56
-39.4913 -12.6641 56.9423 72 101 165
-39.6451 -9.72703 56.8197 68 91 165
-39.4714 -10.7693 56.7016 72 103 173
-39.6793 -11.5926 56.6479 81 110 178
-37.8511 -15.0254 56.1156 84 106 169
-41.2373 -1.31248 56.9699 61 73 143
-40.5183 -3.57506 56.6722 62 74 149
-39.4997 -10.7177 55.8772 73 97 158
-39.7077 -11.541 55.8232 83 108 170
-39.3427 -12.6977 55.6713 83 108 172
-39.8607 -8.60975 55.7034 65 84 142
-39.6875 -9.64973 55.5843 60 78 129
-39.5088 -13.0566 55.2395 76 94 151
-38.9308 8.99707 56.8581 66 45 65
-40.8886 -1.4716 56.0895 70 84 160
-40.8121 -2.44377 55.9877 70 82 170
-39.714 -12.9194 54.8596 78 99 145
-39.7938 -8.61277 54.8642 72 99 166
-39.7158 -9.59819 54.7607 73 101 164
-39.7329 -10.5303 54.6735 80 108 163
-39.9408 -11.3531 54.6194 81 111 161
-39.5371 -13.0049 54.4136 89 118 162
-40.0448 6.87559 55.9652 75 43 62
-39.7908 -7.65758 54.5399 82 96 168
-39.225 -13.6427 53.8981 101 127 174
-25.8085 -33.2827 50.4171 96 112 135
-39.744 -9.54665 53.9371 107 128 186
-39.6659 -10.5337 53.8327 108 129 186
-39.741 -8.59003 53.6132 86 103 161
-36.0732 18.5557 55.383 63 83 158
-39.0676 13.2735 55.2343 113 89 71
-39.4524 -7.79762 53.2392 77 97 164
-38.9802 -13.7327 52.6069 91 100 155
-39.2694 13.397 54.8612 122 97 75
-39.3712 -7.82622 52.8108 81 94 174
-39.5788 -8.6476 52.7563 82 97 171
-39.6911 -9.52412 52.6848 85 101 166
-39.8036 -10.4014 52.6132 82 97 154
-39.1691 -12.6578 52.3165 74 89 136
-37.077 17.2863 54.5617 69 90 158
-39.8351 -11.3088 52.1123 70 85 154
-39.1833 -12.6319 51.9033 67 84 140
-39.6071 -8.59608 51.9328 70 86 159
-39.8147 -9.41781 51.8781 72 83 161
-39.6021 -10.954 51.7016 63 77 158
-39.4674 -11.504 51.6312 63 77 155
-38.7913 -14.2646 51.2777 55 74 149
-37.1048 17.3371 53.75 83 97 129
-38.6929 -13.3556 50.9363 56 72 149
-38.9578 -14.6243 50.8447 62 86 158
-39.3531 9.40185 52.8402 87 52 57
-39.7134 -7.56026 51.2161 59 81 151
-35.0891 -22.6421 49.1535 69 97 150
-36.3462 18.8042 52.9791 92 109 172
-37.282 17.0099 52.9198 103 97 89
-40.0765 7.05406 52.2887 46 52 126
-39.9568 -6.93475 50.8927 61 85 168
-39.5933 -8.08084 50.7339 71 97 170
-39.9524 -9.28579 50.6601 71 93 169
-39.1107 -10.7128 50.4133 71 90 173
-39.7417 -7.50878 50.3934 80 99 169
-38.8878 -13.6634 49.6759 67 83 158
-34.9217 -22.7069 48.2783 67 87 146
-39.7168 -7.97494 49.9282 79 93 167
-38.9584 -14.079 49.2253 58 75 148
-36.4428 18.4541 51.7256 96 106 131
-40.1851 -9.09918 49.4603 61 76 148
-39.2882 -10.0858 49.2471 58 74 143
-38.933 -14.5509 48.7567 68 88 148
-34.5577 -22.8893 47.3655 68 91 135
-40.7956 -2.65243 49.7672 61 73 142
-40.0305 -7.7604 49.1582 71 92 179
-40.0479 -8.6901 49.0675 67 88 170
-39.1112 -10.17 48.7989 65 84 169
-36.2813 18.4088 50.8792 98 103 107
-40.5919 3.74035 49.968 120 105 81
-40.1571 -8.60982 48.6738 73 92 177
-38.8654 -14.5552 47.9104 69 93 140
-40.7293 -2.65414 48.9313 71 88 137
-38.6378 -11.8253 47.7365 76 98 166
-40.0116 10.8104 49.7811 82 44 61
-39.9951 -8.66738 47.815 90 112 173
-33.7428 -24.2754 45.4209 111 135 166
-36.3232 18.4851 49.6603 97 92 98
-38.6662 -11.7736 46.9094 102 129 184
-38.7225 -12.2144 46.8722 105 130 186
-38.8914 -13.538 46.7606 107 128 178
-39.2327 -12.8477 46.4575 107 129 178
-35.6986 20.4758 48.958 98 118 178
-39.8299 -7.76892 46.636 109 131 187
-39.8471 -8.69924 46.5436 107 131 183
-34.1668 -22.9993 44.3304 93 115 163
-39.3568 -12.7403 45.6491 99 109 173
-39.4696 -13.6221 45.5743 95 114 167
-38.6626 -14.5682 45.3694 99 122 170
-33.9418 -23.6006 43.8138 110 128 174
-40.0471 12.7447 47.9326 93 52 70
-39.6848 -8.7569 45.6831 97 107 156
-39.9316 -9.08597 45.6828 95 103 154
-33.321 -24.44 43.2187 112 134 163
-35.7146 19.1774 47.5948 92 107 176
-39.9674 -7.63735 45.4199 71 84 151
-39.1768 -11.8629 44.8788 64 79 150
-39.8633 -12.4105 44.9158 69 89 156
-33.6882 -24.6875 42.817 118 139 169
-37.8622 14.3767 46.9827 109 74 71
-39.9036 -8.59616 44.8964 77 96 163
-39.9209 -9.52762 44.8029 77 97 158
-39.2643 -13.215 44.3336 87 112 176
-33.0695 -22.13 42.5698 94 106 151
-33.6183 -24.6941 41.9546 120 141 170
-41.1776 3.79531 45.5227 126 93 74
-39.4107 -11.6745 43.6767 107 130 181
-38.9091 -13.3867 43.4302 106 130 175
-33.7045 -22.6851 41.7484 85 103 143
-37.2612 -15.7586 42.5363 109 126 177
-41.4311 4.43022 44.8008 121 83 70
-39.9602 -8.49309 43.2492 75 87 155
-39.9775 -9.42448 43.1546 99 121 185
-38.5534 -13.5586 42.5252 109 127 192
-37.5253 -16.0634 42.1207 109 127 191
-33.1702 -21.5152 40.9447 110 128 174
-33.8744 -22.0644 40.9858 109 126 172
-33.8881 -23.0243 40.8877 102 123 164
-33.8593 -24.4964 40.7304 119 138 169
-41.2195 3.87174 44.3013 108 62 65
-39.8791 -8.52188 42.8184 76 100 165
-37.3865 -15.6499 41.7238 103 112 170
-39.876 -7.5657 42.5015 82 110 184
-39.6635 -9.09848 42.311 94 117 183
-38.972 -10.9119 42.0233 97 113 159
-39.0283 -11.3522 41.9852 96 109 156
-38.4857 -13.5627 41.677 96 104 151
-33.832 -23.9921 39.9273 112 134 151
-33.987 -24.3843 39.9081 119 137 156
-40.9657 3.76875 43.4308 92 51 60
-39.8293 -9.45668 41.8799 94 101 171
-38.5164 -14.4775 41.166 66 85 149
-33.6644 -21.6523 39.7234 109 128 160
-40.7916 3.69152 42.9857 91 47 61
-39.8653 -8.00643 41.6209 87 91 148
-38.6667 -13.8969 40.8291 76 96 158
-38.6269 -14.3953 40.7709 75 97 159
-40.2097 7.5385 42.8965 136 101 78
-41.2174 2.09493 42.4658 53 32 88
-39.8232 -7.54275 41.2473 71 90 157
-39.2455 -10.2288 40.8805 70 90 154
-38.9918 -12.267 40.6288 76 95 149
-39.8936 -7.9549 40.7973 81 102 168
-39.8155 -8.94059 40.6816 77 97 166
-38.423 -14.9549 39.8433 102 132 175
-38.3831 -15.4544 39.7846 105 134 178
-34.0596 -21.8479 38.4833 93 110 145
-39.8905 -6.99931 40.4818 103 117 164
-39.6952 -9.46312 40.1916 103 107 166
-38.8514 -10.8931 39.9173 99 101 167
-38.5404 -12.4936 39.7021 86 91 167
-38.7094 -13.8191 39.5857 93 116 172
-33.9468 -23.35 37.8821 109 132 167
-40.29 8.09464 41.7326 117 68 64
-41.2415 3.08575 41.3374 56 36 92
-40.786 -0.407273 40.8987 90 110 178
-39.9218 -7.90336 39.9737 98 107 164
-39.9391 -8.83437 39.877 89 92 151
-39.8048 -9.38247 39.799 90 91 153
-39.1924 -10.2064 39.6219 88 88 152
-34.0885 -21.7952 37.6426 105 128 166
-39.8625 -6.5104 39.6973 75 86 159
-39.0319 -11.2265 39.0714 65 86 155
-38.8005 -11.8336 38.9726 66 89 154
-39.9246 8.85305 40.937 122 71 65
-39.3164 -10.0996 38.8158 79 98 167
