ply
format ascii 1.0
element vertex 1316
property float x
property float y
property float z
property uchar red
property uchar green
property uchar blue
end_header
70.1736 -35.4452 22.8412 181 151 115
72.2077 4.22745 20.8998 84 84 108
73.5677 12.086 20.6106 113 64 49
73.4022 13.1504 20.5366 115 65 48
73.1074 14.2715 20.4466 116 65 48
65.8295 32.6234 18.7302 137 88 53
70.376 -27.8283 21.9917 90 89 92
70.1602 -35.469 21.9278 177 151 117
73.4253 12.1166 19.6682 113 63 48
72.0397 4.74635 19.4662 134 126 109
65.8499 31.546 17.3715 135 83 51
70.0569 -36.4221 21.0561 143 121 94
70.5929 -27.4638 20.6202 139 127 111
67.6546 35.2995 16.8782 135 127 103
70.0312 -35.9481 20.5709 170 152 122
70.7073 -27.5321 19.7202 125 122 118
72.0379 4.20792 18.107 136 125 120
72.2398 5.60955 18.0507 135 123 110
66.454 32.2457 15.977 133 84 49
67.5079 35.3363 15.9163 165 159 147
-38.3687 -43.1579 8.66617 64 54 46
70.1265 -35.5283 19.6444 179 153 118
-39.9098 -43.8865 8.00294 77 62 46
70.6412 -29.4665 18.9053 102 85 108
70.7126 -28.0449 18.8338 98 87 112
72.0971 5.63849 17.1081 98 81 108
66.7265 31.5805 15.0976 131 81 52
70.0043 -35.9956 18.7441 168 153 120
72.0529 6.63253 16.5849 112 84 68
-70.8711 -41.6297 3.4668 139 137 119
70.6277 -29.4903 17.9904 95 96 109
66.9892 34.4919 14.0183 145 123 126
70.0996 -35.5758 17.8176 174 153 115
70.7112 -28.5694 17.4903 87 99 134
66.6852 32.063 13.6492 132 79 49
-69.6894 -41.964 2.48162 125 116 109
70.0031 -36.5171 17.4035 145 126 95
66.5861 31.0726 13.2219 125 75 46
70.5778 -35.2837 16.9404 178 155 118
70.9345 -28.1931 16.5786 100 95 124
66.4461 31.1207 12.7316 127 74 47
66.7838 32.4973 12.6908 131 77 53
70.0984 -36.0974 16.4772 170 152 120
72.0188 6.5723 14.2684 130 99 87
70.9585 -29.1936 15.7235 118 111 124
66.2992 31.1565 11.7684 128 75 46
66.5039 32.5942 11.7094 129 79 49
67.3125 35.2872 11.6461 160 158 137
70.2126 -36.1634 15.5808 173 151 117
70.5576 -35.3193 15.5713 182 153 117
70.933 -28.7172 15.2362 114 113 128
66.7017 34.0202 11.1775 128 100 93
70.945 -29.2174 14.809 94 99 135
66.6638 31.47 10.8467 126 74 49
70.1992 -36.1872 14.6679 168 149 127
70.3079 -35.7438 14.6547 176 151 125
71.8839 -27.6307 14.3674 76 83 130
66.749 32.4358 10.3286 126 74 52
71.0405 -28.7971 13.8814 91 93 126
66.6091 32.4843 9.83744 126 74 50
70.077 -36.6542 13.7681 146 125 102
70.2945 -35.7676 13.7418 177 153 121
71.743 -27.61 13.4365 107 104 110
66.1312 31.1555 9.3868 122 69 50
71.2635 -28.421 12.9712 126 116 98
66.0831 32.1827 8.84896 123 73 52
-8.89039 -42.0986 3.9423 25 20 16
70.0635 -36.678 12.8551 150 128 101
69.7839 -32.743 12.5931 177 154 116
65.5634 31.893 8.33229 122 69 50
70.8077 -30.2326 11.6524 178 153 111
64.8812 32.1721 7.2888 123 69 48
69.1421 -33.0503 11.1626 181 153 109
64.7194 32.742 6.76225 123 71 49
66.4068 32.9789 6.47683 121 72 61
69.6659 -34.2449 9.46689 111 55 56
69.9718 -35.8014 9.1406 99 50 55
65.8664 32.653 4.53912 122 71 54
64.5436 32.729 3.89754 119 68 53
67.6766 -38.915 8.12862 83 42 54
72.6325 7.04185 5.97949 95 45 44
67.7453 34.3134 3.7275 156 145 140
67.779 -38.4821 7.65757 86 44 56
65.7328 32.1566 3.13332 116 68 49
67.6368 -38.4641 6.7229 82 41 54
69.1842 26.4856 2.50166 103 58 46
68.0504 29.0225 2.20191 109 61 48
66.3781 31.8164 1.81761 111 63 53
67.9102 32.6464 1.96296 111 83 85
72.2726 5.10655 2.81278 80 53 55
72.5663 7.4606 2.7061 82 59 69
65.5255 37.1924 141.859 182 51 42
66.3877 37.4463 141.763 180 51 43
66.2402 37.4548 140.842 169 45 39
66.5484 -32.7157 141.446 157 43 36
66.3358 36.9264 139.908 168 45 39
66.5391 -32.7425 140.52 157 44 35
65.9393 39.3728 138.957 162 49 64
66.7984 -32.8189 139.106 157 43 36
72.0601 -12.6904 138.136 103 90 104
74.0225 9.23311 137.447 114 109 112
72.0229 -13.1622 137.69 112 99 87
72.0554 -12.7037 137.676 111 98 86
74.1471 9.17853 136.516 128 104 98
65.9029 37.35 134.792 168 42 35
69.0546 -31.4148 133.775 149 68 48
73.0058 -6.13629 130.076 148 131 116
72.0787 -13.4106 129.865 145 135 111
72.9839 14.7727 128.661 165 41 38
72.4722 -13.505 128.915 105 109 117
72.167 -12.062 128.906 102 110 117
72.6136 -1.92673 128.628 125 120 127
71.4877 16.9428 127.807 169 42 35
72.292 -12.1115 127.976 129 120 112
73.1168 -6.22696 127.77 134 128 120
74.4882 9.28708 127.289 115 109 105
72.1898 -13.4996 127.558 135 132 117
74.3825 9.7597 126.826 148 129 109
73.1075 -6.25349 126.851 155 146 133
73.0095 -9.49591 126.477 119 118 129
74.5068 9.70504 125.899 134 143 129
71.8744 16.7994 125.931 179 102 76
73.1342 -9.54597 125.55 123 112 107
71.4879 17.31 124.561 176 144 111
72.1058 -18.2049 124.918 149 141 129
73.0473 -6.79101 124.111 126 121 132
72.027 -19.1608 123.567 121 116 105
72.3278 -18.7454 123.536 131 126 113
71.7915 23.7366 122.532 169 46 31
71.0452 24.8499 122.558 165 42 36
71.1106 25.7726 122.531 167 43 39
72.7958 22.5373 121.567 190 148 121
71.7778 25.5849 121.563 167 46 35
71.8105 26.0457 121.549 167 44 38
73.0041 -12.8788 121.965 146 142 144
73.601 18.5889 120.686 152 136 139
71.6616 27.9277 120.587 166 43 37
73.6283 17.1555 119.798 121 98 103
73.5592 18.1034 119.779 127 102 106
71.7875 27.8683 119.655 167 51 38
73.5499 18.0768 118.859 163 144 117
67.5575 -33.506 119.613 161 46 39
73.0352 32.1746 117.155 164 44 36
67.5482 -33.5327 118.689 159 47 39
71.861 -15.1309 117.958 161 152 130
73.9351 33.3379 116.608 165 42 37
73.043 -6.07407 117.197 171 169 169
74.036 30.9604 116.201 177 114 82
74.4297 32.7167 115.671 170 65 46
74.4948 33.6347 115.644 165 48 40
71.6801 -15.607 116.601 119 122 150
73.33 -3.83578 116.204 140 152 176
73.2929 -4.30687 115.758 119 117 138
73.3578 -3.3912 115.731 122 118 151
74.6994 27.0197 114.879 158 144 107
71.7034 -15.1751 115.668 104 109 123
71.8009 -13.7996 115.627 114 119 136
74.8925 26.0119 113.973 129 112 112
74.889 27.8776 113.926 122 108 123
71.8286 -15.2238 114.742 147 138 132
71.5921 -14.7208 114.742 149 140 135
71.9494 -13.4168 113.768 115 130 151
74.7729 26.4493 112.128 136 125 120
67.7693 -33.7152 113.594 162 44 40
74.1429 21.4558 111.831 139 125 134
72.0739 -17.2022 112.02 145 142 138
72.106 -18.611 111.595 127 109 132
72.4258 -15.9119 110.59 131 126 127
73.2457 7.14508 109.947 131 135 163
73.0665 -4.91245 109.811 144 147 167
73.0299 -3.51363 109.776 137 141 165
72.1763 -13.5815 109.621 152 164 173
74.3095 22.2488 108.58 156 133 121
76.0923 32.0673 108.238 170 145 99
72.5781 -17.3818 108.783 132 124 134
72.5089 -16.4446 108.762 146 140 143
72.1715 -15.4629 108.751 122 120 133
76.2162 32.0074 107.315 171 144 101
72.5689 -17.4083 107.866 137 142 135
72.6013 -16.9506 107.852 142 149 144
72.2964 -15.5115 107.828 133 140 147
70.8025 -25.0226 107.685 151 133 125
72.1573 -17.3698 106.964 141 146 160
73.3209 10.6954 104.787 127 130 156
73.0312 0.95985 104.139 167 170 205
73.2466 9.75161 103.895 157 163 186
73.0219 0.933304 103.221 122 131 175
73.4034 8.28025 102.548 141 147 181
73.2925 8.74003 101.619 174 174 189
72.1389 -17.0578 101.9 123 124 148
71.3829 -25.7523 101.703 122 105 112
73.1816 9.20002 100.69 135 140 178
72.6336 -17.6287 100.981 123 127 143
72.1618 -18.4928 100.56 151 150 154
73.0262 -0.560139 100.042 174 168 186
72.4858 -17.6468 99.6083 168 162 169
73.151 -0.612373 99.12 186 185 208
74.8979 27.852 98.2854 145 127 109
75.6233 32.334 98.1407 173 148 94
76.0557 32.691 98.1181 172 146 87
72.6796 -18.6313 98.7116 133 134 151
73.0077 -0.613218 98.2047 142 158 210
75.4807 32.341 97.2253 173 147 96
73.0031 -0.626488 97.7454 124 132 187
73.129 3.0654 97.6398 164 157 194
75.079 30.5619 96.8257 173 147 107
72.8691 -17.7645 97.7646 136 128 135
73.2341 -1.14905 97.294 121 131 182
75.3379 32.3481 96.3095 176 149 96
72.6029 9.19275 96.563 114 122 165
72.9201 17.5157 96.3235 124 117 142
74.6724 28.7677 95.9662 134 118 101
75.2683 31.4185 95.8773 175 146 108
72.5879 -15.8959 96.8016 156 159 168
72.7177 -14.0654 96.7475 160 162 177
73.2937 -2.11679 96.4004 169 163 192
75.3287 32.3215 95.3909 174 145 96
73.2891 -2.13005 95.9414 178 182 223
73.3216 -1.67222 95.9279 180 182 233
72.8298 8.65119 95.6514 136 157 194
72.2455 -16.794 95.9162 113 115 156
72.3104 -15.8784 95.8891 121 125 166
72.4403 -14.047 95.8349 121 138 168
71.2948 -28.2341 95.7985 124 110 118
71.3598 -27.3182 95.7714 118 104 117
72.1628 -14.0286 94.9214 145 147 161
73.1414 -2.14452 94.5667 133 137 197
73.7477 27.5205 93.7204 173 148 111
75.7104 32.1678 93.548 172 146 94
71.4893 -29.2142 94.903 162 147 138
71.4199 -28.2797 94.8781 152 145 141
71.4848 -27.364 94.851 155 144 144
73.9501 24.6569 93.3361 120 112 101
73.0631 -1.22962 93.6233 181 175 211
73.8726 27.4615 92.7981 173 150 112
73.9703 28.8386 92.7573 173 149 105
71.5126 -28.783 93.9717 134 117 138
71.2069 -27.352 93.9371 123 109 133
73.6727 24.6939 92.4195 148 143 129
73.0538 -1.25616 92.7049 146 139 201
73.2447 3.35103 92.571 131 145 198
71.3643 -28.8039 92.5968 150 132 128
73.0121 -1.74076 91.8001 152 163 199
73.2679 3.78265 91.6388 152 158 195
73.3329 4.69898 91.6117 142 156 182
73.6333 5.10302 91.5953 147 161 183
73.3927 3.72937 90.719 167 171 198
73.1896 4.6994 90.6943 170 172 194
73.6565 5.53444 90.6635 161 163 187
73.5876 6.4777 90.6376 177 175 198
73.5511 7.8796 90.5982 161 160 184
73.4199 2.3023 89.8403 133 132 186
73.6512 3.64944 89.7986 127 139 182
73.3144 4.6459 89.7745 122 132 171
73.5134 5.53506 89.7464 129 139 173
73.6108 6.90923 89.7057 151 156 191
73.6433 7.36728 89.6921 139 140 180
73.5081 3.64961 88.8814 176 175 200
73.1711 4.64631 88.8567 172 173 194
73.2361 5.56286 88.8296 160 167 191
73.3011 6.4794 88.8024 164 169 193
70.7244 -29.7508 88.9554 165 150 141
73.365 3.64977 87.9639 150 154 200
73.2959 4.59282 87.9373 171 175 206
73.2269 5.53632 87.9107 155 160 191
73.1579 6.48026 87.8841 149 155 187
72.0458 -22.5543 88.275 125 117 133
72.102 -17.9351 88.1408 129 124 136
73.3195 -8.41582 87.854 136 132 169
72.0974 -17.9484 87.6818 139 143 149
73.2501 5.96805 86.9783 131 137 183
73.2826 6.42631 86.9648 130 139 187
72.0971 -19.8141 87.2766 148 158 180
73.1441 -8.87604 86.9508 157 172 194
73.0019 -5.14226 86.8433 166 171 208
73.1684 -4.70913 86.8295 165 173 210
73.5539 2.64094 86.6129 165 170 203
73.485 3.58329 86.586 158 165 195
73.6838 4.47229 86.5587 169 171 200
76.0709 28.5743 85.84 135 116 94
73.2694 8.26069 85.9918 172 172 196
73.1312 10.1508 85.9377 164 168 183
72.1485 -17.0725 86.2778 118 120 161
73.2646 -7.07252 85.9793 146 145 189
73.5447 2.61442 85.695 162 169 206
73.4758 3.55676 85.6679 150 160 205
72.0747 -16.1481 85.7918 140 141 164
72.1396 -15.2323 85.7647 144 149 168
72.6069 -14.3835 85.7374 123 135 167
73.1423 0.821847 85.2901 143 143 187
74.4054 20.549 84.7068 157 147 167
74.0365 21.0998 84.6926 171 158 172
76.0571 28.5345 84.4647 174 150 108
71.0587 -28.5069 85.6988 145 140 137
70.9475 -24.3244 85.5767 126 132 148
72.0051 -17.0773 85.3598 141 144 157
73.4951 5.84718 84.6817 143 141 174
73.292 6.81822 84.6542 127 135 159
73.357 7.73478 84.627 130 138 163
73.422 8.65133 84.5999 136 144 163
73.1498 10.5696 84.5449 125 129 159
72.2645 -15.2809 84.8467 166 170 180
72.4636 -14.3877 84.8197 169 168 190
76.0478 28.508 83.5479 174 150 107
71.0495 -28.5335 84.7804 138 123 144
73.0594 1.7244 83.885 193 195 215
73.3599 2.12987 83.8722 191 191 211
70.9011 -24.8226 84.2117 110 106 134
72.3894 -15.3296 83.9291 120 128 174
72.5885 -14.4365 83.9024 135 143 185
71.1422 -29.0369 83.876 137 119 119
71.0727 -28.1019 83.8484 139 123 123
72.7902 -1.96745 83.0749 200 194 225
73.6793 4.82403 82.8734 192 194 205
73.7118 5.28187 82.8598 190 191 202
73.241 6.30686 82.8301 188 188 201
72.4451 -14.4407 82.9843 131 136 164
72.6514 -1.95534 82.6149 199 198 220
73.2121 2.11641 82.4943 196 194 212
73.8995 25.2423 81.8099 174 155 121
71.1979 -28.1476 82.9307 165 152 145
72.3756 -15.3694 82.5525 145 148 153
73.4268 9.02997 81.8299 187 187 196
72.9631 21.7138 81.4537 182 168 152
72.5005 -15.418 81.6358 166 170 174
72.2971 -14.4581 81.6068 173 176 182
73.0478 9.54609 80.8941 188 187 194
71.0496 -28.1683 81.5525 81 85 157
73.0265 -0.240197 80.2661 170 170 214
74.0831 22.3292 79.5959 178 159 145
73.0664 9.96484 79.5013 161 155 184
76.3293 31.0861 78.884 174 152 117
73.2285 10.3818 79.0296 131 133 173
74.2403 22.7298 78.6647 127 127 152
73.0572 9.93828 78.5818 131 130 162
73.0205 11.3427 78.5394 146 144 158
76.1546 30.6355 77.9791 178 150 106
76.4854 31.4835 77.9557 175 155 136
74.2311 22.7033 77.7457 129 129 132
73.0479 9.91171 77.6623 166 179 198
74.2218 22.6767 76.8266 160 152 138
73.0794 6.62002 76.8421 123 111 159
72.0561 -17.3377 77.0984 147 140 160
73.0018 -5.91623 76.7616 158 163 198
73.1641 -3.6276 76.6939 153 155 198
74.2126 22.6502 75.9076 123 129 129
75.1372 28.0205 75.7542 177 154 112
71.0684 -27.3848 76.9335 155 147 153
71.2353 -26.9462 76.922 159 152 158
73.1392 5.6495 75.9525 141 161 185
73.033 6.12181 75.4771 175 172 190
75.3263 28.8772 74.8115 176 153 112
73.0192 6.08198 74.0985 122 120 155
73.0471 6.52709 73.6254 149 156 171
73.0875 18.627 73.2549 130 137 153
73.0789 5.11158 73.2096 168 180 205
73.0503 18.1546 72.8083 152 154 173
73.0378 6.50054 72.7064 157 161 188
73.0254 12.0874 72.5342 171 166 182
73.0905 13.0048 72.507 174 169 182
73.2079 18.5567 71.8776 143 134 161
73.1179 11.5735 71.6314 118 133 163
73.3171 12.4618 71.6076 132 142 165
73.2595 5.94777 71.3482 138 144 172
73.4458 10.5445 70.7497 164 164 172
73.2428 11.5183 70.7155 164 163 170
73.3403 12.8937 70.6748 177 171 182
75.2141 25.9523 69.8479 150 146 126
73.0993 11.5203 69.7924 140 147 166
73.1969 12.8961 69.7517 137 139 168
75.5724 25.3724 68.9556 129 120 131
73.0901 11.4938 68.8729 133 146 164
73.0872 17.4794 66.3839 124 123 138
71.0084 -29.0565 67.3355 150 135 149
73.2494 17.8948 65.915 137 145 150
73.4161 18.3234 65.9061 142 148 149
73.5735 18.7252 64.9778 165 152 155
74.0002 22.8213 64.8606 168 149 140
73.1704 16.9373 64.5623 132 131 156
73.203 17.3961 64.5487 128 129 151
72.482 5.41298 63.9871 165 169 184
75.707 27.9445 62.9135 158 141 104
73.0578 11.7664 62.423 187 186 188
72.9056 13.6192 60.9777 188 186 185
73.2913 3.75642 60.8504 184 189 193
73.3562 4.67232 60.8233 186 189 194
73.0228 1.93767 60.4395 181 184 201
73.0877 2.85378 60.4124 169 173 190
74.372 28.6356 59.6282 180 152 109
71.0781 -29.261 60.9143 83 83 161
70.9066 -27.8492 60.8618 88 85 153
73.213 4.67274 59.899 165 160 182
72.1771 -15.5745 59.5959 134 142 165
72.0059 -16.0235 59.1443 166 165 171
73.061 6.51994 58.4542 154 156 163
72.2004 -15.1433 58.6647 166 172 175
73.1899 4.60641 57.603 141 151 179
73.1208 5.54968 57.5692 151 158 182
73.1533 6.00784 57.5556 172 176 204
71.1199 -30.2748 58.1941 127 115 121
71.0133 -29.8116 57.715 149 127 119
71.2451 -30.3199 57.2832 155 139 136
73.042 4.59353 56.2184 137 150 178
75.2611 28.2744 55.083 178 149 105
71.1014 -30.3278 56.3587 128 103 135
75.3333 25.829 51.9548 158 149 138
73.6982 18.2529 50.7425 151 142 133
73.6292 19.2001 50.707 126 120 123
75.0202 25.3955 50.5757 114 112 108
71.148 -29.1005 51.2706 136 125 121
73.5549 18.2566 49.8149 161 146 145
73.2734 20.1561 48.8149 118 116 122
75.3299 28.0562 48.6678 177 146 100
71.63 -25.9753 49.8162 134 135 139
70.9814 -21.7135 49.6341 152 156 161
70.6424 -20.7343 49.5811 155 162 167
73.3698 17.7751 47.9809 168 152 140
73.1334 16.4158 47.5528 153 154 149
73.3559 17.7353 46.6017 150 139 141
73.5225 18.1636 46.5975 143 130 134
75.2012 28.467 45.8923 180 149 101
73.3466 17.7087 45.6822 161 157 135
73.4117 18.6259 45.6551 146 140 121
73.31 19.115 45.6319 144 140 120
73.3751 20.0324 45.6048 147 140 119
75.2244 28.8982 44.961 180 147 103
72.2702 -14.6214 45.799 130 128 160
73.4715 17.652 44.7725 140 129 129
73.5365 18.569 44.7454 144 136 128
73.4309 20.9232 44.6579 157 140 121
72.1076 -18.7745 45.4717 132 145 147
72.0709 -17.3803 45.4215 151 151 166
72.0015 -16.4432 45.3848 135 137 160
72.0662 -17.3936 44.9628 160 161 167
72.0987 -16.936 44.9492 156 158 167
73.06 2.36306 44.3506 141 146 161
73.3281 17.6556 43.8433 136 126 108
73.259 18.6031 43.8061 139 126 104
73.2915 19.0618 43.7925 138 124 104
74.1489 25.3879 43.6326 128 113 91
75.2106 28.8584 43.5844 178 148 99
71.3152 -27.932 44.8156 126 111 121
72.2324 -18.8223 44.5643 167 150 160
73.388 16.6819 42.9612 178 167 133
73.1847 17.6591 42.9136 175 162 125
73.0464 19.5551 42.8387 170 151 115
75.2014 28.8319 42.6667 180 150 102
71.3753 -28.8926 43.9352 118 112 106
72.1865 -17.455 43.5965 132 137 160
72.2189 -16.9975 43.583 139 144 168
73.1436 3.6971 42.9327 190 188 191
73.0371 19.5285 41.9186 180 156 118
73.1348 20.9053 41.8778 180 155 114
74.6004 24.2914 41.8635 178 151 103
74.398 25.271 41.8155 177 152 104
75.0587 28.8381 41.7385 180 149 98
72.1451 10.8524 41.6956 192 184 172
74.2959 23.8833 41.3969 180 151 104
75.119 29.7405 41.2524 181 148 95
71.037 -33.5075 42.6947 177 150 117
75.1829 28.7789 40.8312 183 151 101
72.3878 18.2329 40.5359 186 161 128
75.1097 29.714 40.3344 184 149 98
75.0402 28.7851 39.9026 182 149 98
71.1575 -33.565 41.3293 177 150 116
75.1005 29.6875 39.4165 182 147 98
75.1273 28.2549 38.5505 180 147 101
75.2247 29.628 38.5098 182 144 96
72.019 5.64085 38.1856 191 188 186
72.0516 6.09978 38.172 190 187 184
75.5506 28.5881 37.6536 179 149 100
75.2155 29.6015 37.5921 180 144 92
70.8889 -29.4396 38.8701 147 133 130
71.0946 10.0125 37.4994 193 180 171
71.5422 20.1925 37.1766 179 156 114
70.7313 -35.4394 38.6098 159 126 101
73.5507 6.23098 37.3655 177 172 175
70.9446 -28.5505 37.9251 121 111 111
71.8029 20.1043 36.2777 181 157 114
75.4035 28.581 36.2662 179 148 92
75.2016 29.5617 36.2155 181 145 90
71.0557 -34.5858 37.6882 173 145 111
73.5415 6.20446 36.4478 128 131 158
71.9549 10.7213 36.1602 188 174 156
70.462 -27.5845 36.9335 111 112 144
75.5275 28.5219 35.3609 180 148 95
75.0589 29.5681 35.2858 180 142 90
71.0464 -34.6123 36.7711 171 146 111
73.3984 6.20525 35.5181 146 139 146
75.7893 28.4434 34.9266 181 148 97
75.1878 29.522 34.8389 180 142 90
70.6849 -26.2557 35.9858 97 92 128
70.8524 14.6497 34.5477 189 164 132
70.7499 -27.2047 35.5656 94 86 108
75.6145 27.9922 34.0112 181 149 101
75.8773 29.7885 33.9694 172 133 81
73.5184 6.13818 34.1535 92 99 154
74.2135 25.5223 33.522 182 148 102
75.3434 28.044 33.5279 180 149 100
70.606 -27.2119 34.635 94 100 114
70.9402 -26.3346 34.6323 92 99 117
73.5092 6.11167 33.2357 120 111 149
74.8725 25.3362 32.6666 182 151 102
74.9375 26.2516 32.6395 181 150 101
75.2657 28.9652 32.5709 182 141 91
75.5971 29.8146 32.5691 165 121 76
70.4621 -27.2191 33.704 74 77 120
70.7964 -26.3416 33.7017 74 76 122
71.7136 11.5908 32.4243 188 172 142
75.0915 30.391 32.0459 148 109 71
73.3661 6.11243 32.3053 94 88 132
73.0291 7.11067 32.2398 121 126 143
75.6307 24.6616 31.8396 181 154 102
75.3249 27.991 31.6933 173 130 87
75.4906 28.4159 31.6927 166 123 82
75.3214 29.8539 31.6263 145 108 68
69.1134 33.2715 30.9579 141 111 72
70.9217 -26.3877 32.796 58 61 111
73.057 7.55556 31.767 153 155 160
73.6102 30.7294 30.9842 140 105 65
69.4849 32.6933 30.5476 141 108 72
73.3568 6.08591 31.3873 59 73 124
75.3481 28.422 30.7625 135 100 58
70.917 -28.265 31.9449 84 84 124
70.982 -27.3494 31.9178 85 86 128
73.0477 7.52902 30.8484 148 151 152
75.4224 21.8795 30.5461 182 149 106
74.9757 28.9644 30.2506 134 97 58
74.8747 29.4551 30.2238 137 100 59
73.4815 6.03212 30.4826 96 99 137
75.0071 27.5452 29.8457 130 92 56
70.054 -36.4984 31.2449 117 76 71
73.1401 7.01679 29.9567 119 120 134
71.7747 16.6251 29.484 185 159 121
73.2694 6.97602 29.5109 109 118 127
73.4894 29.2858 28.724 139 99 59
68.8834 32.2994 28.1876 141 106 63
70.0773 -36.0669 30.313 141 107 96
73.7352 5.93787 29.133 72 88 112
68.6713 33.2801 27.6681 140 107 66
70.0727 -36.0802 29.8538 141 112 95
73.3941 6.92202 28.6064 119 124 123
75.7872 25.4248 27.7025 129 89 55
72.149 4.82212 27.6453 71 88 123
73.5876 5.92534 27.7432 72 89 119
73.2509 6.92297 27.6746 111 121 120
73.1326 12.9787 26.9831 184 162 119
72.2742 4.76853 26.7397 125 127 147
73.2417 6.89644 26.7564 146 146 134
73.4399 5.91281 26.3528 114 124 144
72.5454 16.3395 25.8833 181 145 103
70.7269 29.3925 25.2267 133 92 56
67.8608 31.9795 24.8499 140 96 61
67.6526 32.9752 24.793 139 99 67
72.2649 4.74197 25.8202 89 96 137
72.8545 11.1339 25.6445 188 162 122
70.348 29.9401 24.7066 135 94 58
73.1629 5.94077 25.4063 77 90 118
74.3683 21.0221 24.9734 126 79 54
69.5607 30.5888 24.1412 136 92 57
67.6104 32.4844 23.8765 139 94 63
73.0892 6.87086 24.9056 118 122 120
74.0753 15.0276 24.7052 156 103 75
65.2267 34.4843 23.0975 138 110 83
69.6546 30.0665 23.2432 140 93 59
65.0506 34.0394 22.6288 138 98 67
66.4599 32.2386 21.9064 143 97 61
65.87 33.8053 21.7876 140 101 66
66.174 34.1881 21.3385 138 110 82
73.0012 5.88842 22.6367 86 92 116
73.0661 6.80453 22.6096 123 121 109
66.4778 34.5705 20.8898 146 128 108
73.0656 4.93202 22.2198 126 111 139
73.0569 6.77799 21.6912 138 133 119
66.3967 35.5084 19.9141 166 152 141
73.1213 5.82139 21.2746 82 93 127
66.7775 33.0325 19.5809 145 95 63
73.0477 6.75146 20.7729 122 112 101
66.2165 35.0511 18.9792 154 129 92
73.1121 5.79487 20.3564 82 99 111
66.1187 31.7474 18.6256 141 92 57
65.975 33.6765 18.5379 138 95 66
66.3166 34.5378 18.543 133 113 93
66.2024 35.0107 17.5802 158 146 128
66.7927 31.5375 17.3099 139 86 57
66.2885 34.457 15.7456 143 116 104
66.4921 35.3523 15.7351 161 154 143
72.3393 4.90788 16.6283 67 84 130
72.9411 5.71596 16.6673 69 85 104
72.7977 5.71663 15.7322 118 92 103
72.5944 6.68784 15.6715 126 91 80
66.8531 34.7295 13.9366 157 144 128
67.5458 30.7633 13.7031 131 77 51
72.7885 5.69009 14.8136 106 102 84
66.8503 30.9047 12.6848 130 76 52
72.3116 4.8282 13.8705 107 108 127
72.7792 5.66355 13.895 111 108 103
72.7101 6.6073 13.8506 119 94 75
72.3023 4.80164 12.9513 113 88 122
66.4238 30.9655 11.234 130 76 56
69.3287 -33.2309 13.5838 168 145 110
72.867 5.1385 12.5481 95 82 101
69.0166 -33.6805 12.6427 175 144 111
71.1913 -27.9637 12.6934 135 119 102
72.2884 4.76181 11.5724 105 112 125
72.8903 5.57003 11.6162 112 110 103
73.1211 5.04462 11.2062 122 122 110
70.6211 -32.0715 11.8627 172 148 108
72.2467 4.27676 10.6667 153 136 103
73.0151 5.51634 10.7157 158 131 94
69.208 -34.6734 11.3252 173 143 112
69.4086 -35.6388 10.9284 174 131 102
69.4736 -34.7218 10.9012 176 133 101
72.3393 3.76494 9.77919 180 150 111
73.4401 5.86606 9.83838 178 137 100
65.4261 31.1077 7.8406 123 70 51
66.0768 32.3677 7.8749 125 71 53
73.5043 4.91059 9.42495 179 147 115
72.1957 3.76514 8.84176 181 134 108
73.5646 5.81235 8.93922 180 125 99
73.061 4.50723 8.46587 171 103 82
73.6844 5.74542 7.58194 112 59 55
73.2779 3.94282 6.68132 114 58 53
68.3491 29.3475 5.03266 119 66 52
68.9186 29.6506 4.16939 116 65 50
68.9139 29.6372 3.70565 115 63 50
69.2856 27.1668 2.92659 113 60 51
66.4608 34.4622 2.25188 149 135 131
67.0999 25.7892 2.21592 104 55 51
66.1807 34.518 1.74514 150 137 129
67.4351 26.6382 1.76412 96 54 60
74.0662 11.8027 142.61 146 40 42
74.0672 10.4263 142.207 156 42 38
74.2393 11.3182 141.695 153 44 37
74.5474 10.8322 140.767 149 82 47
74.319 11.743 140.754 151 80 49
66.22 -36.9142 142.6 149 137 138
66.1243 -35.9842 142.573 124 60 48
72.1338 14.4803 139.951 190 50 43
67.5531 -32.1663 141.808 146 43 38
72.4478 -11.1293 140.479 162 137 100
74.2339 7.16016 139.571 165 134 98
74.2179 11.2488 139.41 163 132 92
66.1634 -36.4776 141.651 140 100 97
74.8051 9.41197 138.967 166 136 100
74.0839 9.87434 139.02 166 136 101
74.0318 11.6916 138.953 166 131 91
69.5175 -26.9638 140.474 150 132 119
72.0347 -12.546 139.653 148 133 110
72.2134 -11.6222 139.599 150 136 111
74.2668 8.04111 138.617 155 137 104
74.0328 10.3153 138.55 158 135 101
74.1157 12.1303 138.47 174 123 92
72.8932 13.5141 138.536 173 53 44
72.3456 14.889 138.536 187 55 45
74.3093 7.57239 138.173 142 127 109
74.0189 11.65 137.582 157 129 88
72.4727 14.8584 137.606 181 52 41
67.9486 -32.2113 139.437 147 46 39
72.8334 13.9278 137.149 176 50 42
67.1602 -34.1416 139.122 146 43 37
72.8709 14.8221 136.652 177 49 43
66.6966 -36.5241 138.792 138 96 95
67.2952 -34.1467 138.642 146 42 36
67.4259 -34.166 137.696 146 43 37
66.9496 -36.5898 135.964 138 94 94
66.9893 -35.6659 135.457 128 44 29
67.1069 -35.7273 133.111 130 43 32
72.5907 14.1914 130.737 166 42 39
67.3337 -35.2586 132.607 136 43 38
67.1855 -35.2963 131.686 136 42 35
67.041 -36.736 130.818 137 94 96
67.1767 -35.3246 130.753 137 40 38
72.0532 -19.2919 129.751 136 132 127
72.934 13.2058 128.452 159 63 46
72.9766 12.7365 128.008 175 125 97
72.7473 13.6498 127.992 167 78 62
71.8345 14.5633 127.572 165 71 41
71.6047 15.4786 127.556 166 48 39
70.9569 17.7564 127.062 166 41 40
67.6212 -34.4167 128.815 145 43 37
72.3274 13.6157 126.65 173 146 115
71.5539 14.541 126.676 185 142 113
70.8163 17.746 126.613 163 45 41
70.995 18.6519 126.565 161 43 38
66.8714 -35.4283 127.977 139 43 37
67.4732 -34.4541 127.894 144 45 34
72.4545 13.5853 125.723 155 143 120
71.9484 15.87 125.677 177 140 104
67.4644 -34.4824 126.962 145 44 36
66.8582 -35.4708 126.577 137 42 36
72.3806 16.7131 123.778 166 139 108
72.3337 17.1686 123.764 169 139 110
72.1043 18.0832 123.747 171 140 107
71.7341 20.3653 123.69 175 92 61
67.5905 -34.5157 125.553 146 42 35
72.7637 20.7594 122.684 178 130 86
71.9454 22.1467 122.692 166 63 48
67.2555 -34.0985 124.628 148 44 39
72.9883 19.8319 122.244 169 141 106
72.9789 21.1779 121.738 171 140 103
71.6558 24.8512 121.696 161 43 40
66.5083 -36.5132 123.834 121 54 49
70.9201 26.6813 121.221 162 40 38
66.967 -35.5606 123.3 138 42 37
66.8709 -36.0484 122.857 129 42 31
72.905 24.2946 119.798 168 142 106
66.8621 -36.0767 121.924 127 42 29
72.4436 24.7368 118.897 172 139 99
67.2681 -34.6756 120.912 151 44 38
72.836 26.0513 117.91 169 140 100
72.397 32.8239 116.78 161 42 38
73.7785 23.2599 116.579 170 142 108
73.0183 -3.56673 117.123 164 164 166
72.8306 35.0286 115.761 163 40 41
73.992 35.3991 115.222 162 40 41
66.6829 -36.2138 117.732 128 42 32
74.2521 35.3562 114.297 168 40 39
74.0371 20.4682 114.379 118 121 125
73.9851 22.2786 114.318 113 108 125
74.5163 35.3271 113.827 177 48 47
73.451 -4.08782 114.819 108 107 137
73.2684 -3.63317 114.813 108 109 138
75.0126 33.0384 113.425 179 133 93
74.0285 20.4405 113.466 136 121 116
73.9765 22.2509 113.406 126 114 109
75.0139 31.6756 113.018 167 141 99
75.2297 33.4622 112.943 182 114 84
73.5779 -4.11395 113.894 154 165 185
73.2128 -3.20467 113.882 160 166 180
73.4337 -4.14352 112.984 122 121 156
73.3868 -3.68727 112.971 123 119 148
74.0157 20.3989 112.098 130 115 121
75.7519 33.3921 111.553 182 116 85
73.4346 -5.52826 112.573 115 122 153
76.1076 32.4619 111.113 171 136 103
74.0071 20.3712 111.186 127 109 98
75.8305 33.8086 110.626 170 78 65
73.0237 -6.9348 111.724 149 153 165
73.426 -5.55611 111.656 160 165 172
73.2852 -4.18703 111.615 160 160 175
76.099 32.4343 110.206 177 139 105
74.0399 21.2467 110.24 143 136 140
76.2282 32.4136 109.746 174 138 103
70.136 -32.4269 111.823 142 72 62
71.2571 -27.2935 110.665 140 120 98
76.1226 33.2743 108.36 182 113 86
76.5242 31.894 107.934 168 144 96
76.2054 33.7042 107.887 168 77 61
76.172 30.1028 107.558 156 134 104
76.0213 34.1487 107.426 164 56 43
76.1968 33.6767 106.981 169 75 59
76.117 30.5264 106.637 143 127 98
76.4651 32.3035 106.562 173 141 103
76.0128 34.1212 106.52 167 58 41
71.1027 -28.7586 108.407 147 134 108
76.4566 32.276 105.655 175 140 106
76.1841 33.6354 105.621 169 76 64
76.1334 34.0725 105.155 166 57 45
72.1943 -18.1364 106.616 110 110 138
76.1349 32.7132 104.746 179 131 95
76.1755 33.6079 104.715 167 76 58
67.0486 -36.9749 106.992 122 43 41
66.6732 -37.4827 106.557 123 66 57
72.228 -17.2429 105.662 139 135 134
76.1264 32.6857 103.84 180 130 97
66.6644 -37.511 105.623 113 67 60
67.5452 -36.5148 105.557 117 48 38
75.9744 33.9973 102.44 161 66 46
73.1085 -2.15467 103.286 121 123 165
75.9659 33.9698 101.533 161 116 58
73.0999 -2.18251 102.369 155 159 180
73.0948 -0.812828 102.324 165 167 191
73.0956 -2.19644 101.91 158 166 189
73.0017 -1.28394 101.883 164 171 191
73.0904 -0.826749 101.865 170 175 199
73.1851 -3.12287 101.478 148 145 182
75.9995 33.4775 100.187 167 135 74
73.0826 -2.23821 100.534 128 131 167
73.307 -1.77963 100.512 130 133 170
73.1628 -1.80864 99.5996 174 174 192
76.158 32.9507 97.9298 168 140 81
73.0185 -1.83766 98.6864 169 173 203
76.2744 32.8886 96.1138 170 142 86
75.0785 30.2409 95.7743 166 146 100
76.3528 33.3047 95.1914 167 138 82
72.1576 -16.6853 93.6568 134 129 147
66.1601 -39.8496 91.2164 126 141 158
67.456 -40.2477 90.2789 123 141 156
67.7257 -40.255 89.3432 127 142 158
67.478 -39.3806 87.9193 132 137 147
72.1019 -18.2605 87.2513 147 156 177
67.5125 -39.8867 86.5347 126 140 161
70.6739 -24.8883 83.759 121 110 111
71.9493 -11.9567 82.9171 122 131 156
73.1339 -0.953355 82.5944 192 189 214
73.3061 1.32755 82.5275 190 187 209
72.5541 20.4115 81.5095 180 171 152
73.2139 -0.524394 81.6646 190 189 210
71.8469 -12.4602 81.5498 164 167 183
73.2998 10.3717 80.4315 178 182 190
72.947 20.3576 80.1404 175 172 155
72.305 -17.081 80.3035 111 119 136
73.0155 11.7105 79.4762 169 166 180
73.0573 12.6182 79.4502 144 138 164
70.7673 -22.223 79.9816 121 117 122
72.174 -19.8589 79.922 131 129 133
70.2178 -23.6479 79.5565 137 136 134
73.0056 -0.152819 78.9012 126 130 179
73.9882 25.6891 78.1664 168 158 120
73.0736 -7.47417 78.6526 167 167 198
73.1795 -0.635683 77.9992 147 153 201
73.9796 25.6615 77.2556 168 159 123
73.018 -7.04556 77.7215 145 147 189
72.4203 -18.5386 77.5822 129 136 157
72.0445 -17.6607 76.6319 154 158 171
72.1345 -18.5909 76.1983 141 143 170
73.111 -0.249424 75.6948 174 173 194
73.0903 -8.02816 75.4541 168 164 199
73.1024 -0.277246 74.7784 146 147 179
73.1236 -7.14062 74.5115 139 140 188
71.0813 -30.3119 71.8886 149 138 123
71.1146 -26.6114 71.7883 121 119 129
72.0397 -18.2866 71.1194 150 141 175
71.1672 -31.2598 70.9911 159 141 111
71.3895 -29.3968 70.9455 124 115 112
70.8222 -23.8822 70.7834 106 112 121
70.5431 -22.5097 70.74 115 126 141
72.1719 -18.2954 70.6618 127 143 168
72.036 -19.6943 70.2358 126 134 150
70.5344 -22.5377 69.8159 152 146 143
72.2575 -19.2394 69.7679 161 158 160
72.2997 -18.3182 69.7441 161 159 158
70.2909 -33.6722 69.6468 148 125 100
71.2441 -30.8338 69.5939 158 140 118
71.2867 -29.9063 69.57 136 121 126
70.7622 -24.8641 68.9594 131 131 138
70.6203 -23.4851 68.9188 109 112 132
72.1123 -19.2727 68.8438 150 152 170
72.291 -18.3462 68.8235 126 128 158
70.2822 -33.7003 68.7204 151 130 103
71.2827 -31.3217 68.6831 160 141 108
71.2354 -30.8619 68.6696 157 139 115
71.1408 -29.9423 68.6425 128 113 106
72.2402 -19.2953 67.9264 139 150 159
70.0927 -34.6682 67.814 107 69 60
70.3378 -34.7484 64.579 106 71 62
70.5571 -34.2977 63.6483 130 100 84
73.201 1.1579 61.9105 186 181 189
66.8583 -39.2663 61.7807 90 54 46
74.7467 27.8013 59.9208 176 158 108
66.989 -39.2843 60.8533 92 56 46
73.3455 6.10909 59.9589 150 148 169
73.4034 1.54463 59.6188 156 152 173
66.9802 -39.3126 59.9209 93 54 47
70.1564 -34.8982 59.9419 113 77 66
71.1482 -29.7413 59.8535 101 106 109
74.7718 27.2803 57.6621 177 155 112
71.4189 -32.5413 58.5484 163 139 106
71.1741 -31.6725 57.129 160 141 112
71.1225 -31.2267 56.6534 151 134 119
71.0195 -31.737 55.2738 158 138 110
74.6392 29.4239 53.9674 178 154 106
71.0064 -31.7791 53.887 160 138 112
67.5195 -39.9468 52.9703 94 61 51
71.0834 -31.353 52.4939 147 135 109
75.5871 30.1799 50.8212 178 152 115
71.2119 -31.3728 51.5771 150 126 117
71.3916 -30.4373 51.565 116 94 109
74.6992 27.0458 49.9376 168 143 99
71.066 -31.4091 50.6453 154 138 119
71.2457 -30.4734 50.6337 125 123 106
75.8413 30.1258 49.4767 178 151 114
71.1945 -31.4289 49.7289 153 129 118
71.3742 -30.4934 49.7177 127 109 109
74.0732 22.507 48.1875 138 133 112
71.1858 -31.4569 48.8048 149 132 108
71.2284 -30.5295 48.7859 114 103 93
72.0016 -16.6668 48.5123 127 122 150
74.2034 22.4886 47.7406 141 143 119
72.0444 -17.1386 48.0656 119 121 150
71.1771 -31.485 47.8807 155 139 115
72.3177 -18.5207 47.6542 135 142 150
72.0872 -17.6103 47.6189 139 144 156
71.1684 -31.513 46.9566 151 129 115
72.1727 -18.5539 46.7255 139 137 141
72.1678 -17.1756 46.6937 156 148 172
72.1207 -16.718 46.6803 152 142 176
73.2989 1.98303 44.0416 164 166 171
72.8533 17.7988 40.9178 185 161 125
75.7292 31.1278 38.1173 168 131 80
70.1535 -26.7449 37.9967 113 107 109
75.0061 31.5846 37.1441 165 125 76
75.1356 31.5641 36.7013 166 124 74
75.0892 32.0153 36.6881 165 125 76
71.8535 19.0317 35.7887 181 154 115
74.9469 31.9946 35.7699 163 122 75
75.6628 30.1501 35.4141 171 130 83
75.7036 31.0452 35.3987 162 120 73
75.8791 30.5742 34.9702 165 122 72
74.9383 31.9671 34.8627 161 119 74
73.8731 5.79652 34.8618 96 100 147
75.5615 31.0243 34.4812 161 121 74
74.975 32.8488 34.3939 161 124 79
73.7391 4.4204 34.4222 94 101 143
65.1694 34.7196 33.0678 151 130 102
73.8645 5.76879 33.9485 96 94 121
75.6458 30.095 33.6013 168 128 80
74.8381 31.4812 33.5034 154 114 70
75.0593 31.9189 33.5134 152 115 71
74.9665 32.8213 33.4869 155 119 76
65.7181 34.6752 32.6546 151 131 102
75.0771 26.5131 33.1722 179 150 100
66.2659 34.6309 32.2423 150 131 100
66.4944 35.0736 32.253 161 148 124
74.08 4.8182 32.6171 85 90 119
74.1552 31.4734 32.0823 143 105 69
74.7089 26.0365 31.7875 180 149 101
74.5121 30.5428 31.6788 142 102 67
73.7481 31.4798 31.5918 141 106 68
74.5068 31.8911 31.651 141 107 69
66.5371 -42.5141 31.9797 172 159 136
69.9382 -34.8113 32.1303 163 138 108
74.0715 4.79048 31.704 52 67 132
74.1129 5.69824 31.6895 56 69 134
68.4503 33.093 30.6285 146 112 74
67.7613 34.4921 30.5384 151 127 104
70.5049 -26.9197 31.5603 78 75 106
71.3709 13.8938 30.82 183 160 118
73.6579 4.76394 30.7538 95 99 141
73.6112 5.21846 30.7405 97 99 143
72.1648 31.0657 30.0917 141 101 66
69.3512 33.4706 29.7862 147 117 75
70.6381 -28.3268 30.6767 69 77 93
70.6808 -27.4001 30.6622 65 75 92
70.4962 -26.9478 30.6362 65 75 92
71.1242 30.6507 29.5481 139 101 66
69.7742 -32.0944 30.209 157 132 113
73.1085 4.73776 29.7897 63 72 119
71.9529 12.0233 29.5377 185 161 130
71.7656 13.8444 29.4842 186 156 121
70.3163 -30.6857 29.7692 135 112 108
70.2172 -28.3776 29.7143 78 74 95
70.3029 -26.5233 29.6858 76 73 103
70.1645 30.669 28.5443 138 101 67
70.7973 31.0907 28.5955 139 100 66
69.1591 32.5318 28.4131 143 105 65
72.8559 9.71125 28.7537 182 163 132
72.1123 15.6257 28.567 181 152 114
70.0284 29.3021 28.1009 134 97 64
69.8878 30.6682 28.0607 139 99 68
69.4278 32.5038 27.9811 143 104 66
69.6067 33.4005 27.9804 147 113 71
70.4834 -28.3905 28.8155 88 100 109
70.7107 -27.9157 28.828 87 100 112
69.8835 30.6543 27.603 139 100 66
70.8778 31.5108 27.6812 141 102 67
70.5645 -26.5511 28.3255 113 107 125
72.8941 9.22876 27.8529 182 162 129
72.8791 13.314 27.7718 182 155 118
72.7856 14.2228 27.7451 181 154 117
72.8272 15.1288 27.7315 182 156 116
69.4744 29.2993 27.1324 136 97 60
70.1613 -30.75 27.906 140 127 111
70.4792 -29.8058 27.9186 127 117 118
70.4747 -28.4185 27.8912 107 103 119
70.702 -27.9438 27.9041 106 104 121
69.8324 29.7221 26.7009 139 100 60
69.8749 30.6266 26.6875 142 100 67
70.8692 31.4831 26.7675 142 100 69
69.6407 32.9034 26.6206 146 107 69
70.0917 33.7849 26.6473 145 115 80
70.5088 -27.5197 26.9533 80 76 113
70.9963 31.4486 25.8673 140 97 70
69.9982 31.9511 25.759 139 98 68
69.7683 32.8685 25.7187 142 104 70
69.9938 33.3094 25.7325 144 109 72
69.6363 30.1424 25.3002 136 95 63
70.1344 30.5717 25.3416 138 95 65
69.2143 32.8692 24.7481 140 101 65
69.3934 33.7659 24.749 144 115 84
70.4485 -27.1021 25.5536 93 90 114
70.7587 30.9659 24.4826 134 95 65
70.4712 -36.8504 24.8157 98 66 58
70.3024 -27.1374 24.6156 68 76 116
73.0008 6.37627 23.8052 103 109 124
66.407 33.4141 22.6155 144 103 72
70.6903 -36.399 23.9049 116 89 71
73.1786 5.90688 23.3755 87 85 122
70.819 -36.4175 22.9941 119 93 72
67.3686 -43.6999 21.3659 154 150 138
67.3598 -43.7281 20.4342 155 148 136
70.5223 -36.5069 20.6517 119 95 74
69.3899 -28.2502 19.9151 126 112 128
73.1859 6.70445 19.707 132 108 94
67.4903 -43.745 19.5178 152 144 139
70.2384 -36.5541 19.6958 120 97 75
73.2751 5.78134 19.2768 137 125 105
64.8909 32.8951 17.8551 141 94 68
73.042 6.67756 18.7778 146 117 96
70.0445 -36.1311 18.741 145 126 100
73.4017 5.75296 18.3781 141 121 111
65.1152 31.942 16.9749 140 91 62
67.3379 -43.7989 18.1048 144 137 127
67.0555 -42.4196 18.0483 114 92 88
67.0988 -42.8973 17.5959 135 119 117
70.2372 -27.3479 17.6831 87 89 122
73.2579 5.72584 17.4488 116 105 135
67.6075 -43.8044 17.2049 138 135 121
67.2771 -43.3778 16.6936 135 129 124
70.3659 -27.3686 16.7747 92 79 92
73.1141 5.69871 16.5191 99 82 88
67.7773 -42.898 15.8132 124 108 102
70.4946 -27.3893 15.8667 97 104 111
67.6814 -43.3864 15.3451 123 120 107
68.1377 -42.4301 14.9181 97 77 69
70.6232 -27.41 14.9591 104 97 125
68.1849 -44.3064 14.4909 122 119 102
68.8308 -43.7867 14.5599 123 117 101
68.8696 -44.2772 13.6442 115 114 101
68.3109 -42.9239 13.5532 112 96 94
69.3712 -43.7836 13.2333 115 110 97
68.3933 -42.4786 12.6267 77 63 67
68.995 -44.308 12.2674 113 109 102
69.2242 -43.8231 12.2879 114 110 98
68.4841 -43.4176 12.189 110 106 101
68.3411 -43.443 11.707 110 104 101
68.2459 -42.5179 11.6798 79 60 62
68.8434 -44.3618 10.8565 112 108 98
68.3323 -43.4712 10.777 111 104 100
68.467 -42.0616 10.7711 70 43 50
72.9655 5.05016 10.1158 171 145 110
71.9601 8.24015 9.93555 90 48 46
68.1848 -43.5107 9.82946 114 106 102
68.0896 -42.5854 9.80226 85 59 61
71.994 7.74308 8.57569 88 46 44
71.6756 8.2009 8.52691 90 45 44
71.5224 8.14648 6.67689 92 45 46
71.973 6.29431 5.85102 106 52 53
71.9175 6.722 4.92192 94 46 47
68.3794 30.4319 3.15811 114 64 51
69.289 30.8418 3.27764 116 66 53
71.8157 6.22556 3.54284 85 49 59
68.2337 30.4105 2.22141 112 64 53
69.2804 30.814 2.3617 113 65 55
71.7602 6.65334 2.61351 72 55 41
68.3621 30.3762 1.32318 96 59 73
69.4082 30.7795 1.46517 98 61 74
68.9005 30.3222 0.484349 102 65 55
69.6679 30.7246 0.130999 76 62 48
70.0366 37.236 142.321 205 75 57
70.8315 38.7015 141.689 173 65 77
69.3621 37.1073 141.49 164 47 38
70.4231 37.7194 141.338 164 46 39
69.2202 37.5131 140.568 160 44 36
69.4922 38.4631 140.482 156 45 39
68.0148 36.8642 140.278 160 42 35
68.4176 37.3802 140.204 159 43 36
67.6087 36.7896 139.868 159 41 34
68.1491 37.7823 139.751 159 43 38
68.0134 38.204 139.283 157 43 36
67.1077 -34.3682 142.777 129 37 33
67.2325 -34.3616 141.814 133 39 34
74.1228 5.09883 138.792 152 133 97
74.1301 6.4993 138.708 154 133 96
68.298 -38.0057 141.448 134 150 164
68.164 -37.5522 141.434 136 148 167
65.8446 37.8151 137.238 158 41 34
68.1573 -37.568 140.962 137 149 169
67.3531 -34.8467 140.882 130 38 34
68.6905 -38.9051 140.513 135 154 165
64.4832 37.1282 136.494 159 40 36
68.6809 -38.4442 139.538 135 153 168
74.0901 5.02232 136.5 116 97 93
64.2007 37.0579 135.606 156 39 36
72.2847 14.4168 135.673 166 39 34
69.2041 -39.3195 138.116 133 151 167
68.654 -38.5073 137.648 133 150 170
63.7795 37.8568 133.759 157 42 41
72.0563 -18.2082 135.707 99 86 75
72.0593 -17.7285 135.679 111 99 83
72.3884 13.9167 133.855 165 39 34
72.394 14.8448 133.802 169 39 34
72.0437 -19.1839 135.296 118 101 81
72.0431 -18.2393 134.776 133 120 96
72.6376 13.4727 132.939 160 38 36
72.2485 14.7892 132.901 169 40 35
72.1595 -20.142 134.406 113 111 109
72.0305 -19.215 134.365 107 107 104
72.3652 14.3198 131.999 166 37 38
72.1522 -19.2123 133.421 103 86 92
72.7504 13.4523 131.554 158 39 36
72.1455 -19.2278 132.955 112 104 91
72.7374 13.4218 130.639 155 38 35
72.9929 12.9934 130.181 154 49 32
72.9837 12.5138 129.75 162 78 52
72.592 13.3658 129.737 152 38 37
71.9376 14.6319 129.724 160 39 39
71.6781 15.51 129.698 164 42 37
71.7888 14.1117 128.847 158 38 38
55.2687 40.6255 128.807 146 115 116
71.9121 13.6572 128.402 154 43 32
70.864 15.7786 128.375 161 42 36
56.7579 38.9647 128.305 149 82 98
56.2115 39.3511 128.33 144 95 110
55.6643 39.738 128.355 147 115 131
66.9436 -34.2711 130.927 132 38 31
70.7275 16.2029 127.904 159 40 37
55.2555 40.5945 127.877 137 130 152
70.984 15.7729 127.446 160 40 38
56.0599 39.3005 127.414 149 90 113
55.6511 39.707 127.426 139 96 127
72.2208 -19.3338 128.754 97 90 92
70.8476 16.1971 126.975 159 43 35
55.6583 40.6212 126.911 96 83 124
56.1851 39.2891 126.473 147 89 108
55.915 39.7149 126.473 138 93 122
72.0727 -19.3987 127.836 130 115 100
57.2706 38.5016 125.963 150 71 74
55.7837 40.6095 125.97 95 81 117
56.1719 39.2581 125.545 147 86 103
72.0594 -19.4298 126.906 108 104 107
72.0624 -18.9496 126.88 99 95 101
55.7566 39.6489 125.091 139 92 120
55.6253 40.5437 124.589 96 80 119
74.0774 9.31247 124.328 136 129 126
56.0136 39.192 124.164 146 84 98
55.6048 39.5984 124.174 139 92 116
71.4493 -27.3343 125.96 133 122 98
57.1062 38.8689 123.632 148 76 85
56.2772 39.2002 123.212 146 85 98
55.8687 39.6064 123.222 138 93 114
73.0566 -4.04775 123.712 119 114 129
74.3218 9.31951 122.934 109 107 115
56.0006 39.6104 122.747 137 92 112
73.0461 -3.6066 122.766 122 118 126
73.0205 -6.93042 122.473 140 135 130
74.1703 9.24733 121.575 146 140 136
71.1019 25.7606 120.962 159 39 32
55.9739 39.099 121.378 146 82 94
55.9877 40.0286 121.33 124 98 124
55.5585 39.4898 120.922 139 91 108
73.0073 -6.96125 121.55 107 112 131
55.6908 39.9433 119.959 125 101 122
55.8297 40.4118 119.461 99 89 121
73.0631 28.7628 118.397 163 52 46
73.0593 29.204 117.921 165 57 49
55.671 39.8968 118.566 126 97 118
55.8164 40.3808 118.532 98 86 114
72.3762 -17.6432 119.799 110 105 113
72.6637 30.934 116.954 162 46 33
55.2417 39.8074 117.667 126 98 120
54.9645 40.2183 117.2 98 84 120
55.6237 38.4392 116.777 149 71 74
54.9508 39.7374 116.758 126 95 122
54.8261 40.6486 116.722 79 86 124
73.1912 -11.307 117.581 152 147 140
73.0629 -10.3883 117.545 148 145 136
73.1993 -9.88217 117.513 150 148 139
73.518 23.2702 115.904 160 134 95
73.4486 34.1953 115.385 159 40 34
73.4499 35.54 114.868 159 38 33
54.9376 39.7064 115.828 125 96 121
54.674 40.5983 115.802 82 90 131
73.1834 -10.3877 116.611 125 134 152
73.0551 -9.46976 116.575 125 136 157
73.9013 23.7669 114.946 147 127 101
73.9612 36.0419 113.908 164 38 32
54.9243 39.6753 114.898 127 96 123
54.7996 40.5865 114.863 79 82 129
73.1756 -9.46939 115.642 104 101 135
74.2175 36.5184 113.419 166 42 36
55.3131 38.322 114.472 147 72 74
54.9034 38.7285 114.478 145 79 84
74.5966 35.6587 112.985 181 59 52
74.6012 36.5623 112.942 168 45 38
54.9111 39.6443 113.968 127 96 115
54.9253 40.5748 113.924 77 77 116
73.1625 -9.50024 114.718 129 121 123
75.2309 35.2763 112.062 164 45 35
74.8504 37.0227 112.004 166 47 42
73.1493 -9.53109 113.794 125 140 152
75.1013 36.5956 111.558 167 50 46
55.0159 38.6861 112.609 146 77 84
55.0301 39.6173 112.565 127 97 121
55.176 40.1019 112.534 97 83 117
75.2181 36.5852 110.65 165 48 44
55.1416 38.6748 111.67 146 76 85
55.1557 39.6058 111.627 127 97 123
55.5858 40.5936 111.558 77 79 114
74.0794 19.9909 110.559 151 132 117
75.4603 35.6924 109.776 157 46 36
75.2053 36.5552 109.751 165 49 43
73.2781 -3.44574 110.737 117 127 155
75.3221 36.5448 108.844 166 47 42
75.4347 35.6323 107.977 161 45 37
75.3072 36.0637 107.964 163 48 41
68.69 -33.4935 107.601 131 51 43
75.8851 33.3198 103.999 171 98 69
75.6128 34.5893 102.605 157 50 35
73.9681 24.2586 100.831 144 130 107
75.8294 33.6364 99.9321 157 124 69
73.9552 24.2284 99.9238 130 121 117
72.8773 20.3567 99.6609 111 105 124
72.9852 18.5079 98.8179 154 150 138
75.7994 34.0129 97.6658 158 128 66
72.8349 17.5307 97.9481 163 162 149
72.9723 18.4775 97.9071 165 163 149
72.9674 19.8291 96.9432 147 138 131
72.8384 20.2656 96.9305 143 135 133
73.1685 -6.31353 94.7045 112 121 136
73.015 -8.72521 94.3344 132 144 165
73.0056 -9.2145 93.89 147 151 168
73.0084 -8.74062 93.8728 148 151 169
73.1554 -6.34431 93.7828 127 131 152
73.1408 -7.7782 93.373 129 126 140
73.5947 27.11 91.6563 152 141 101
73.1276 -7.80899 92.4506 110 114 123
67.1967 -39.734 93.2343 124 136 152
67.6006 -40.1246 92.7662 122 138 152
73.1145 -7.83979 91.5282 144 156 170
73.1095 -6.45201 90.5567 120 113 152
73.2282 -7.85519 90.1412 105 112 148
73.1083 -5.52281 90.0633 142 146 162
72.3368 -18.5815 88.6651 98 104 118
72.4466 -20.4958 87.7971 139 125 124
72.167 -20.1152 86.8576 113 117 141
72.0383 -19.19 86.829 117 122 145
72.3133 -18.1647 86.7927 125 129 153
73.7472 24.6438 84.9337 121 119 120
72.2797 -21.5521 85.972 104 102 124
73.7304 25.0556 83.5599 119 117 103
71.7717 -12.6582 83.8373 107 119 147
72.9172 22.599 82.7344 163 147 122
73.2236 10.6286 81.7327 174 176 173
73.2289 11.5565 81.7045 174 174 174
73.382 -7.12526 81.8103 147 150 150
72.7544 21.5969 80.9464 169 155 134
75.8151 33.4831 80.5779 172 166 150
73.3453 11.0881 80.8043 174 176 173
73.2356 -7.18662 80.8902 151 148 155
73.8147 25.8705 79.9076 164 145 103
72.3342 20.5613 79.6123 160 150 138
73.4864 -7.62866 79.9807 103 104 128
73.2279 -6.27264 79.9411 102 108 138
73.4142 26.6868 78.9776 165 142 108
73.2227 -4.88801 78.9793 140 144 160
67.8402 -38.0022 78.9797 102 63 52
73.1713 -8.27073 76.7695 132 124 136
73.0433 -7.3557 76.7435 135 131 138
73.182 -6.38027 76.7173 127 129 140
73.7592 26.1909 75.8207 156 141 107
73.0356 -6.44144 75.7961 133 142 160
73.7463 26.1607 74.9155 160 138 112
73.8667 26.6088 73.9986 131 124 122
73.732 27.0276 73.5336 123 105 120
73.0467 3.31971 72.3201 123 118 143
73.0336 3.28911 71.4035 125 135 154
73.0206 3.2585 70.4868 154 161 176
70.617 -34.0694 69.9621 117 81 63
72.8374 20.3151 68.6995 142 139 142
71.7322 3.71348 63.5651 173 174 174
71.6644 16.6675 61.9199 171 163 151
71.9978 -11.3844 61.1173 153 150 152
72.2212 -17.5302 60.7825 108 104 132
71.8505 -11.447 60.1888 108 112 129
72.0597 -16.6852 58.4431 147 137 156
73.1059 25.0626 57.7119 165 143 101
73.3577 25.534 56.8069 163 142 104
73.6065 25.5484 55.911 148 127 99
72.7712 20.3281 54.6065 142 130 127
72.7582 20.2977 53.6978 110 110 113
72.0716 -16.4686 49.6377 143 138 141
74.4272 27.284 48.6918 166 137 91
70.8046 -21.1438 47.7782 134 128 119
71.8142 11.1443 46.9517 132 124 154
73.2533 6.98967 38.4104 178 174 166
73.2494 7.43934 37.95 177 171 162
71.9891 19.1811 36.8543 166 143 103
71.8531 20.5069 35.9255 167 143 96
73.2089 5.9676 35.6765 133 139 154
73.0621 4.52727 35.2189 102 113 142
71.8982 8.94095 35.1007 181 171 155
-72.9153 29.9081 24.0625 138 119 97
75.1281 27.3943 33.8651 170 137 95
-72.8005 31.5554 22.368 118 103 88
71.8811 10.2743 33.264 179 166 145
76.0254 26.6249 33.49 170 141 92
71.8776 10.7234 32.8047 178 162 141
72.0452 16.3033 32.7855 172 150 109
-71.5119 35.0416 21.322 144 134 127
73.1554 4.46325 32.4852 85 86 114
73.0285 5.36784 32.4701 85 88 114
71.8651 9.7792 32.3526 178 162 144
74.8668 30.9319 32.4744 140 101 61
71.8586 9.76394 31.8955 178 160 141
71.5965 10.1761 31.8722 177 159 138
72.2932 15.8608 31.898 177 148 113
68.33 33.9716 31.4816 152 121 74
-69.6408 35.7911 20.3448 166 161 152
73.6737 5.00861 31.6111 55 67 123
72.4122 15.8552 30.9982 177 153 107
72.1512 16.2672 30.9747 174 149 105
74.9707 29.5498 31.1416 135 92 64
-72.3659 34.8664 19.0046 148 142 132
-69.8609 35.729 19.2063 168 166 157
-69.7256 37.4163 19.2092 178 169 158
74.1906 5.55266 30.739 93 97 134
-73.244 34.1811 18.3723 137 120 111
-69.7787 36.8354 18.6475 176 169 156
69.7483 32.7694 29.7908 147 109 68
-69.5376 37.403 18.105 177 169 158
-71.568 34.9101 17.384 151 148 138
-69.9988 36.7736 17.5088 178 172 162
70.3911 32.3873 28.9414 144 106 65
71.9426 9.21874 28.7092 175 157 129
