ply
format ascii 1.0
element vertex 1367
property float x
property float y
property float z
property uchar red
property uchar green
property uchar blue
end_header
30.0902 -8.32637 7.28116 35 102 56
29.0265 9.13339 5.78547 29 90 45
-13.3349 -28.7599 3.63138 130 135 102
14.4419 -28.1009 6.67712 30 89 46
30.0961 -8.33779 6.85588 35 102 57
30.2297 -6.37215 6.71489 38 101 56
30.1522 -5.28643 6.62016 52 113 88
30.171 -4.26568 6.54131 87 143 121
29.0234 8.59801 5.39324 31 90 44
20.1659 -24.1502 6.57436 35 99 53
21.6653 -22.5877 6.61815 50 115 75
22.264 -21.9636 6.63564 48 115 90
23.9533 -20.533 6.71125 41 102 70
25.3541 -18.4136 6.69961 83 132 95
30.1207 -7.33392 6.35179 32 101 55
32.3861 4.04559 5.69929 32 93 51
19.0688 -25.4767 6.12873 34 94 46
21.0719 -23.2237 6.17461 33 98 54
23.3621 -21.1668 6.26864 60 119 82
30.2415 -6.39503 5.863 34 101 54
30.1053 -3.19843 5.59166 74 136 108
29.1243 7.98047 4.58571 31 91 46
29.0355 8.57478 4.52809 34 87 49
19.178 -25.0496 5.67856 33 95 48
21.7751 -22.6737 5.78266 62 121 75
22.3736 -22.0497 5.80052 84 143 107
25.2689 -18.3725 5.83382 45 109 71
30.3246 -7.48972 5.53299 34 99 59
21.1818 -23.3096 5.33885 37 98 56
23.3739 -21.1896 5.41826 63 120 78
30.1171 -3.22138 4.73711 47 111 59
29.0475 8.55154 3.66294 32 89 46
18.584 -26.2006 4.84705 28 92 45
19.5843 -25.3231 4.89094 32 94 48
21.6833 -23.1347 4.95483 35 98 55
21.8847 -22.7596 4.94755 38 99 57
22.0921 -22.3959 4.51461 37 100 55
23.2882 -21.1491 4.55142 61 124 78
24.0867 -20.152 4.56253 45 109 72
25.2866 -18.4067 4.55911 39 102 64
30.3707 -5.99859 4.13536 31 98 53
30.1972 -4.84503 4.02111 30 97 51
30.2254 -3.31198 3.89926 34 99 53
29.362 8.83829 2.80754 33 82 45
26.0894 -17.4231 4.14548 40 106 65
29.8054 11.1627 2.23448 59 98 72
29.5303 12.4307 2.09843 103 117 91
21.9946 -23.3578 3.72783 33 100 55
22.2017 -22.4819 3.67996 35 103 62
23.3 -21.172 3.70085 58 123 75
25.0003 -18.7402 3.69991 39 104 65
30.3811 -0.839073 2.85613 32 98 54
29.2762 8.88627 1.92525 31 80 48
29.8208 11.6766 1.75922 88 115 87
29.5456 12.946 1.62235 118 130 99
22.415 -22.1297 2.82155 41 103 56
23.2144 -21.1315 2.83344 52 115 76
29.4412 11.9414 0.82224 98 120 97
28.9917 8.54135 0.617286 31 88 49
28.9566 12.2907 0.29983 104 121 101
28.5722 13.1079 0.185625 120 127 104
22.4268 -22.1526 1.97042 37 99 54
29.2025 8.91103 0.177222 32 85 49
19.5518 -23.3446 1.29613 33 97 52
28.7632 11.8847 -0.561028 70 107 79
19.8634 -22.5398 0.836981 35 99 53
22.0592 -21.9454 0.19839 38 101 55
23.2561 -20.6982 0.239049 38 100 60
7.40167 -6.14902 162.472 249 245 230
7.60242 -3.84346 162.565 191 226 214
7.4705 -7.60748 161.939 171 165 190
7.52424 -6.19704 161.566 250 247 245
8.0118 -2.57626 161.242 139 152 150
7.53049 -6.19623 160.682 250 246 246
7.1982 -5.57884 160.768 207 205 213
8.38074 -2.25346 160.758 128 166 166
8.51401 -1.83166 160.759 177 212 212
7.30723 -6.09731 159.398 249 246 238
7.1939 -6.04801 158.976 249 246 237
8.08508 -4.50736 157.593 125 137 156
21.3289 -23.7175 86.6391 25 26 78
21.3872 -22.3638 86.6553 25 27 78
21.6629 -23.8465 85.7724 28 29 83
21.7019 -22.9449 85.7828 27 28 81
22.1077 -21.271 85.7919 27 29 79
18.6799 -25.8838 84.9802 25 26 75
20.7448 -24.8514 83.6499 33 38 89
18.4713 -25.7962 83.271 25 28 79
19.8406 -25.4076 81.9552 34 36 86
19.8497 -25.4065 80.6705 46 52 107
19.5068 -25.7281 79.818 58 65 109
19.6419 -25.3188 78.9625 38 52 101
22.0779 -23.069 78.9378 47 49 102
30.9344 -11.6065 78.4545 98 97 144
30.8992 -3.3027 77.6776 33 33 89
21.0285 -24.4809 77.2345 71 83 142
24.0575 -21.1065 77.215 69 81 127
18.6333 -25.8325 75.9733 34 39 98
21.06 -24.0284 75.5272 74 84 145
20.2377 -25.0792 75.1019 53 65 117
25.0218 -19.6554 74.6582 59 74 144
17.3908 -26.263 74.2666 38 45 114
17.7293 -26.3911 73.4032 37 47 105
25.2267 -20.1919 73.3764 48 58 129
19.7943 -25.3563 72.9636 47 60 108
24.3043 -21.19 72.9525 51 61 131
19.8034 -25.3552 71.6787 62 74 133
19.5705 -25.7199 70.8214 65 80 135
13.2358 -28.8033 69.9665 82 93 143
19.4664 -25.6761 69.965 85 102 147
26.0085 -18.2038 68.7036 100 119 197
30.2199 -12.1769 68.2995 91 87 157
29.0307 -14.4196 67.8681 85 89 159
30.2229 -12.1765 67.876 87 84 160
28.531 10.4362 67.9324 26 28 75
30.0772 -13.029 67.4501 72 69 163
30.6571 -12.357 66.6069 72 74 142
28.4979 9.51455 66.6395 26 27 75
28.7782 10.7964 66.6431 25 27 79
6.88139 -29.6471 66.0414 72 83 134
25.6856 -18.5181 65.7243 157 131 49
30.8755 -12.447 65.7617 63 69 135
28.8746 10.2849 65.3523 26 28 75
29.0042 10.6949 65.3536 25 27 77
23.0388 -21.1076 64.8522 164 141 42
28.6185 9.4651 64.9197 27 28 79
22.2198 -22.1539 64.4181 164 147 59
25.0061 -19.1518 64.4421 160 138 40
29.2262 -15.404 64.4778 93 108 109
28.7723 10.3369 64.4914 26 28 78
21.2705 -23.6099 63.982 161 154 106
22.024 -21.6148 63.9893 165 148 56
28.0568 -17.2009 64.0434 155 142 73
28.3984 -16.8856 64.0465 149 138 92
26.583 -18.4205 63.6053 163 142 41
28.5082 -16.9297 63.6238 139 135 100
31.1933 5.45218 63.653 25 27 76
28.6488 9.92749 63.6298 26 28 76
28.908 10.7478 63.6324 25 28 74
30.7675 5.65186 63.2216 24 26 76
30.8106 6.56719 63.2219 27 28 80
26.589 -18.4197 62.7557 158 141 42
30.7705 5.65225 62.7941 25 26 77
30.7063 6.61767 62.7931 27 27 78
25.2374 -19.2382 62.3154 160 142 36
29.7184 8.95845 62.3524 25 26 72
28.8747 9.82644 62.342 25 26 72
29.0042 10.2364 62.3433 24 27 73
28.7426 11.7755 62.3394 27 36 85
25.2 -20.1374 61.89 163 140 35
25.2202 -19.6877 61.8899 163 140 35
28.9201 10.7494 61.9118 25 28 79
29.9403 8.85769 61.4972 26 27 78
20.5571 -25.1523 60.9801 167 157 72
29.1004 9.72551 61.0553 25 28 79
21.2754 -24.0578 60.5612 163 150 53
20.6951 -24.7431 59.6979 165 145 43
21.3908 -24.1003 59.708 164 144 37
31.4839 6.271 58.9578 36 34 79
25.7761 -22.6389 57.6545 144 127 64
31.6635 5.25879 57.6833 44 44 83
28.9085 -9.2716 57.2493 50 56 136
23.2445 -25.2786 56.7602 159 136 28
29.2537 -8.95841 56.8303 48 54 133
31.7981 5.66645 56.8312 28 27 73
31.7346 6.63018 56.8262 24 26 75
25.7179 -21.6979 56.376 76 99 59
21.7772 -26.0695 55.8776 155 132 32
25.8489 -21.2926 55.9526 67 106 43
31.911 5.61747 55.9805 26 24 70
31.8767 4.70596 54.7041 32 31 74
31.92 5.61865 54.7007 24 25 77
27.1686 -19.081 53.8525 45 95 45
30.5982 -8.60924 53.8889 43 41 113
30.1275 -2.39745 53.8422 31 29 84
31.9895 4.65723 53.8544 29 27 73
30.6438 -7.70689 53.4608 45 41 115
30.1099 -5.16558 53.4313 43 42 118
31.9291 5.61983 53.4209 26 27 71
30.5829 -6.75699 53.0289 52 43 104
26.1958 -21.4201 52.5652 52 103 53
27.1776 -19.0798 52.5798 77 98 51
30.9906 -7.39471 52.6202 57 63 139
30.5006 -6.25791 52.5987 88 97 146
30.5432 -5.35352 52.5944 119 128 159
30.3722 -4.35356 52.5831 133 137 163
30.3935 -3.90044 52.581 123 124 157
31.9985 4.6584 52.5755 26 26 76
26.3296 -21.0146 51.7176 49 96 48
31.0169 -11.5364 51.8002 88 79 138
30.8691 -5.49405 51.7553 185 190 226
30.8266 -4.08953 51.7446 186 197 231
30.9761 -3.23123 51.7435 159 156 186
31.811 -1.75295 51.3346 35 31 87
31.1504 -11.1322 50.9552 41 41 108
31.9769 -3.20412 48.8028 108 97 143
31.8119 -4.51203 47.9591 185 182 213
31.8381 -1.74943 47.5105 31 31 80
29.1533 11.173 47.2883 24 31 87
31.9673 -3.65472 47.1085 56 50 101
31.8209 -4.51086 46.6863 84 74 126
31.8856 -3.15459 46.6759 34 35 88
29.051 11.2253 46.4232 24 30 80
31.9331 -4.5573 45.8428 43 40 101
31.9763 -3.65355 45.8355 34 34 90
19.9036 -24.8356 44.6856 172 170 176
31.9607 -4.10475 44.9906 38 43 115
29.0003 12.2027 44.2585 36 54 89
15.9949 -26.9937 43.6761 151 160 177
29.0034 12.2031 43.828 37 56 90
19.9127 -24.8344 43.4001 82 73 100
29.2476 12.5627 42.9739 70 90 116
31.9757 -4.1028 42.8694 128 130 165
31.8711 -1.74513 42.8366 32 33 83
32.0398 -7.35368 42.4873 47 43 111
29.573 -9.03739 41.9638 189 187 218
31.8772 -1.74434 41.9868 30 32 82
29.3651 12.5121 41.6885 69 91 113
10.8059 -28.7046 40.8527 116 118 139
31.9848 -4.10163 41.5967 63 55 98
30.986 4.70776 41.4365 27 29 75
29.1088 11.6918 41.2556 25 35 75
29.2202 11.6407 40.8314 25 35 75
29.3712 12.5129 40.8279 71 92 112
28.0632 -11.1463 40.6388 195 198 242
31.9329 3.80702 40.6422 30 30 72
30.8879 4.75857 40.1488 26 29 70
29.2263 11.6415 39.9709 25 36 70
29.3773 12.5137 39.9672 71 93 111
28.1624 -16.2363 39.8614 192 197 236
22.359 -23.0325 39.2197 174 184 202
30.7867 4.809 39.2878 26 32 65
30.8082 5.26628 39.2827 26 31 67
28.1028 -15.2919 38.9961 163 157 199
30.8328 5.72414 38.85 27 33 67
28.4125 10.6171 38.6499 25 32 68
30.7927 4.80978 38.4331 30 33 65
29.0005 11.2842 38.242 22 35 73
28.9345 12.26 38.2244 37 58 82
30.6242 5.82474 37.9814 27 33 68
28.1591 9.79661 37.786 25 31 65
28.4186 10.6179 37.7886 25 33 63
28.7236 12.3642 37.3493 41 58 88
28.1652 9.7974 36.9248 26 33 63
28.3161 10.67 36.9204 26 33 60
28.8564 12.7754 36.9198 75 94 116
24.8373 -19.8945 36.7527 34 32 81
30.7406 5.77601 36.7052 27 35 68
23.9132 -20.8936 36.2875 61 51 104
30.6393 5.82671 35.8427 29 35 62
30.5748 6.79293 35.8237 29 36 66
28.757 12.8285 35.6201 74 93 114
22.8811 -21.8509 35.3871 100 85 121
29.6726 8.62488 35.3116 28 36 68
28.1774 9.79898 35.2023 26 35 66
30.7313 7.6604 34.9628 26 36 65
28.1805 9.79938 34.7717 26 36 66
28.8717 12.7774 34.7657 70 95 112
30.8415 5.27061 34.5806 41 47 59
29.8945 8.52426 34.4683 27 36 65
30.8681 -1.25657 33.8377 82 90 97
30.3102 7.86333 33.6476 26 37 62
28.6239 9.5961 33.5109 26 37 62
29.0765 12.2126 33.4953 40 61 78
31.5372 1.22929 32.9859 78 85 94
29.1748 9.34221 32.2604 26 38 57
29.0644 11.7517 32.2105 27 43 68
28.8741 9.95678 31.7994 25 40 57
29.9158 8.52703 31.4654 26 41 56
31.8892 -0.779809 31.3424 67 72 83
28.8598 -9.60663 30.8725 83 101 135
31.9554 -1.73418 30.9394 38 55 71
30.3964 4.55817 30.7143 48 58 77
29.185 11.7017 30.4973 26 48 64
29.8821 7.60914 30.1928 35 46 62
30.0113 8.01802 30.1941 31 44 60
29.6011 8.68035 30.1529 30 43 60
30.1875 4.65829 29.8419 26 47 58
29.9289 6.18232 29.7944 26 46 55
29.8851 7.60953 29.764 27 43 57
30.0143 8.01841 29.7653 27 42 57
29.2799 8.83312 29.6978 28 43 58
29.1911 11.7025 29.6366 28 50 67
15.187 -27.0907 28.9588 67 89 105
28.8688 -9.60546 29.5964 80 106 128
29.9798 -6.85982 29.6225 85 108 132
30.6203 -4.83263 29.6289 94 114 147
31.8148 -2.59109 29.6706 34 50 71
29.8485 6.69205 28.9214 27 47 55
28.2232 9.80493 28.7429 26 44 57
28.3741 10.6775 28.7367 27 45 61
28.7676 -9.55842 28.7369 78 104 144
29.7749 -6.76495 28.3293 129 146 168
30.736 -4.87871 28.3621 78 93 113
28.2926 11.192 27.8584 29 48 57
15.5345 -27.218 27.2597 58 72 75
28.7737 -9.55764 27.886 86 104 115
29.9061 -6.35895 27.9052 124 146 166
30.5285 -4.78339 27.4939 62 80 94
31.8929 -3.54182 27.571 31 54 66
-12.8855 -29.3679 24.2802 98 109 131
23.7134 -19.4001 26.8552 34 57 65
-11.905 -30.1987 23.9199 96 109 125
15.0784 -27.4996 25.9357 59 71 77
28.7827 -9.55646 26.6096 107 122 131
29.9151 -6.35777 26.629 83 102 116
-12.1363 -29.6341 23.4377 95 108 125
30.7754 -4.42367 25.8035 36 60 72
29.689 -6.71533 25.3421 119 154 165
-9.56984 -31.5072 22.3267 94 109 123
29.692 -6.71494 24.9167 117 152 157
14.164 -28.0639 23.2824 62 92 84
-9.99786 -29.4363 20.8941 69 81 91
-8.84967 -28.4137 20.0646 36 46 51
30.9032 -4.46828 22.8372 47 74 67
-7.80284 -30.7013 19.7568 86 102 107
-8.75101 -29.4043 19.646 55 68 74
-8.47687 -28.5463 19.199 32 48 48
-7.85372 -28.2955 19.2462 31 50 43
29.7131 -6.7122 21.9384 63 101 105
-8.74465 -29.4035 18.7466 53 70 70
30.6774 -4.82519 21.5504 63 93 92
-8.71473 -28.4565 18.2762 36 56 45
30.4878 0.361388 20.9824 29 72 56
30.8999 -4.91854 20.296 45 84 68
31.6927 -2.03345 19.8693 31 78 54
30.8638 -1.19511 19.3482 32 85 57
-7.64227 -30.2702 16.1689 72 92 84
-7.60157 -28.854 16.1365 50 67 56
28.7297 -9.50316 18.9403 37 84 64
29.8146 4.40943 18.6837 29 80 51
-9.62809 -30.9839 15.1063 95 109 120
-7.35194 -28.9417 15.2633 55 71 55
31.8328 -1.62653 18.1702 58 116 89
29.8633 5.32644 17.8076 29 82 45
29.906 6.24349 17.7876 28 79 50
-9.48933 -30.5543 14.6576 93 110 117
14.3222 -28.1008 16.8098 35 78 55
28.5241 -9.40938 17.6412 34 84 58
-8.86162 -30.301 14.2595 88 103 102
31.1992 -1.33754 17.2524 52 106 73
29.8908 5.78563 16.9408 32 86 53
-6.26474 -29.8089 14.0422 62 78 61
28.1004 -9.22316 16.744 33 89 59
-8.61113 -30.3882 13.386 89 102 101
-6.2584 -29.808 13.1468 58 78 57
28.1064 -9.22238 15.8918 34 89 61
29.2258 12.6916 15.4027 71 105 92
-8.60476 -30.3874 12.4872 92 110 94
-6.61847 -29.6757 12.6603 57 79 55
28.8822 12.3848 14.9469 48 90 71
-7.7353 -30.2226 12.1179 86 103 77
30.8939 -1.19119 15.0888 162 179 194
29.015 12.796 14.5173 73 104 95
-7.23241 -29.9263 11.7101 68 90 64
-6.84086 -29.1152 11.726 42 75 45
28.6316 -9.90504 14.6834 34 93 59
30.8965 -3.50748 14.7276 76 128 119
30.854 -2.09903 14.684 148 168 191
30.79 -1.14263 14.6509 172 184 212
-7.72894 -30.2217 11.2204 95 110 77
28.1758 11.3082 13.6138 30 88 47
28.5654 12.5414 13.6177 52 93 72
28.8464 13.8268 13.6093 94 111 101
30.304 -2.31266 13.783 121 120 132
30.4537 -1.45184 13.7734 130 118 162
30.3893 -0.493912 13.7397 121 113 144
28.3118 11.7201 12.7529 27 89 47
28.5715 12.5422 12.7555 50 94 68
30.4597 -1.45106 12.921 115 141 187
30.3953 -0.493127 12.8867 116 148 191
31.0395 8.54797 12.6905 28 91 49
28.3179 11.7208 11.8906 29 90 50
28.8374 13.3652 11.8958 89 110 97
30.5296 4.57548 11.8978 58 115 70
30.3576 5.59054 11.8501 67 127 81
30.7229 6.35676 11.8653 40 103 56
30.3144 7.01591 11.8037 31 96 46
29.5065 -5.6558 11.6672 77 134 109
30.4926 5.99948 10.9954 54 113 67
28.1094 11.8254 10.5714 29 89 47
28.608 13.0072 10.5883 70 105 86
30.5387 4.57667 10.6148 52 109 65
30.732 6.35794 10.5815 42 102 53
28.1155 11.8262 9.70883 31 89 47
28.6565 13.9347 9.70219 91 109 94
30.6522 4.52781 9.77253 57 114 72
30.4802 5.54261 9.72302 59 119 67
30.5447 6.91739 9.68776 31 97 47
30.8027 7.73405 9.69034 29 93 47
25.7734 -15.5829 9.44022 35 99 53
25.618 -14.1364 9.37875 35 100 54
25.6383 -13.6838 9.36696 34 101 54
28.0127 11.8787 8.8329 34 92 53
28.6414 13.4721 8.85143 86 109 94
25.5126 -14.0906 8.93869 37 101 55
25.9864 -13.3674 8.96761 37 101 56
30.7867 2.60267 8.99139 143 156 146
30.5079 3.66379 8.92805 117 150 116
30.7655 4.479 8.93063 66 124 80
30.7226 5.90149 8.88166 47 107 55
30.7657 6.81775 8.85779 31 94 49
31.2382 7.53338 8.88681 32 94 49
25.651 -15.9888 8.58611 43 103 65
25.5691 -15.4913 7.7077 46 108 62
25.8465 -14.2256 7.69811 36 102 56
30.6673 4.52977 7.63477 69 129 70
30.7317 5.90267 7.59814 38 98 52
30.7748 6.81893 7.5737 30 93 50
31.3762 7.94253 7.60458 28 92 44
25.7617 -13.7274 7.24561 41 104 62
30.5843 7.37842 7.1061 29 93 47
30.4121 8.39757 7.05411 29 93 47
29.0273 11.8783 6.7876 36 92 52
16.4831 -27.045 6.20601 28 83 45
25.6833 -15.5355 6.86813 42 102 56
25.6361 -14.1341 6.81743 36 101 60
25.785 -13.2743 6.80635 39 104 63
30.566 2.24652 6.84155 99 145 99
30.9094 4.88857 6.79462 38 101 51
30.8452 5.85348 6.75616 32 96 53
29.8548 8.19148 6.56908 29 93 45
31.106 6.66964 6.33099 28 95 48
29.1845 12.7521 5.91497 74 106 85
31.6447 6.41972 5.97257 28 95 50
18.876 -26.5856 5.17204 26 86 38
25.6924 -15.5344 5.5886 37 99 53
25.6248 -14.5852 5.54942 36 100 55
30.6853 2.19905 5.14727 48 104 56
31.9916 4.39434 5.22501 32 96 50
31.6554 4.08723 4.34234 31 96 55
29.8068 11.5202 3.87423 40 91 52
29.6865 -0.601438 3.84301 36 101 55
31.7436 3.58212 3.94292 32 97 55
32.3425 4.70314 3.97531 32 95 52
29.2722 7.06749 3.53272 30 94 48
23.7219 -17.9343 3.30291 34 99 50
30.3553 -5.07253 3.64848 36 103 58
30.4835 -4.66682 3.64976 36 103 57
30.7403 3.11341 3.4131 32 96 50
23.5271 -17.3921 2.83308 33 100 49
29.5668 -5.64796 3.14837 38 103 62
29.8213 -0.193406 2.99015 32 101 51
30.3359 1.43557 2.99529 34 97 55
31.5173 3.2258 2.64755 33 95 48
22.8389 -18.0286 1.91594 35 96 52
22.6234 -17.9388 1.45805 35 96 55
28.988 10.0369 0.3839 26 80 43
29.7657 12.4984 0.391671 100 122 89
7.75235 -0.734907 162.166 203 219 219
7.63416 -0.703463 161.744 203 218 221
7.31972 -7.38969 158.953 227 223 255
7.6167 -1.12409 158.639 124 142 164
26.7977 -17.9811 82.3119 28 29 84
22.1159 -23.1276 81.0652 40 40 88
22.1267 -23.1224 80.2054 29 31 81
27.9035 -16.8909 80.1714 27 30 86
22.132 -23.1198 79.7755 31 33 84
25.0788 -20.6442 78.8979 50 58 107
26.0488 -19.5359 78.8948 43 46 102
25.2913 -20.2223 75.4776 61 76 136
25.151 -20.1311 68.2054 61 82 147
27.5236 -17.5493 65.2533 147 129 31
28.6402 11.4562 64.5895 25 40 98
29.0727 -16.5623 64.0019 113 111 73
29.2397 -15.2944 63.5865 63 93 50
28.5966 11.0365 63.7295 28 31 76
29.0233 -16.1112 63.1532 66 96 53
28.6135 10.1616 62.8679 27 28 76
29.0237 9.61906 62.4437 27 28 81
29.7102 -6.26926 61.9426 44 37 109
13.5931 -27.9451 61.0966 91 85 40
29.8354 -7.16363 61.5144 86 78 159
32.1451 3.58324 61.615 28 28 76
13.3629 -27.8955 60.2189 113 103 33
29.4492 9.0853 60.7376 26 27 79
11.5243 -28.8777 58.4234 90 88 61
21.1866 -24.9439 58.6717 153 134 35
24.426 -22.9538 58.758 154 132 28
21.7281 -25.4777 57.8214 149 130 25
25.6395 -21.8814 57.9368 141 126 64
24.6735 -22.9915 57.479 148 130 38
24.9698 -22.6074 56.6324 114 105 78
24.8649 -22.5793 55.7732 79 84 70
24.8755 -22.5741 54.9172 62 91 44
8.57207 28.7881 53.7097 48 59 91
8.08513 28.937 52.8003 49 57 92
21.4444 -24.4971 51.7881 51 96 41
7.6028 29.0888 51.4419 48 58 93
8.53211 29.2805 51.4765 56 67 96
20.1037 -24.6737 51.3065 49 94 39
8.17542 28.4688 51.0141 43 51 83
7.98277 28.9838 51.0083 50 59 90
11.3243 -29.2203 50.5256 59 63 57
21.8608 -24.1327 50.9435 46 94 38
23.1984 -23.9554 50.9952 46 95 39
8.11302 28.9506 50.5661 48 60 90
8.9219 29.181 50.1512 56 68 92
8.62224 28.8127 49.6919 47 59 85
8.88761 28.7492 48.363 47 60 82
9.31677 29.0843 48.3819 57 70 90
9.64346 28.5402 47.5028 47 62 84
31.3253 -9.54995 47.9516 195 196 215
31.1147 -9.49104 46.6683 190 187 227
28.1652 9.57737 43.9871 28 30 80
32.1092 1.59053 42.9085 94 95 120
29.0882 11.1039 42.7513 27 32 70
29.1601 9.772 42.3259 27 29 77
29.0393 10.6817 42.3198 27 30 77
29.3947 9.71446 41.9107 28 30 77
29.3886 10.5935 41.9108 27 30 77
28.8684 12.0531 41.4537 38 54 84
32.5018 -2.82688 40.805 39 39 95
32.4964 -1.95839 40.8049 41 40 101
29.4107 9.7223 40.6273 28 30 77
29.2901 10.6316 40.6204 26 32 74
28.9334 12.4834 40.6 59 79 101
31.953 -4.42679 40.348 41 39 96
32.3403 -2.3468 39.9466 44 43 100
32.6737 -1.5598 39.9667 40 40 96
32.6683 -0.691034 39.9664 36 40 91
29.1922 9.78769 39.7579 26 33 71
28.9441 12.4886 39.7431 58 83 91
8.6938 29.3596 38.5272 56 77 84
32.5767 -1.52471 38.6876 53 53 114
32.5122 -0.207307 38.6832 36 44 93
32.1029 2.06602 38.6569 93 94 107
28.0805 -15.6911 37.984 148 141 159
30.6359 -5.83106 37.7163 39 42 86
32.7001 -1.54685 37.8466 55 51 111
32.6357 -0.229751 37.8418 37 43 92
29.1524 11.1353 37.613 29 36 66
32.528 0.672705 36.985 53 62 94
32.178 2.49787 36.9607 90 97 113
28.1558 -15.2578 36.2821 45 52 103
29.1684 11.1431 36.3284 29 37 63
29.7099 -7.77123 35.5272 109 104 124
30.543 -4.9211 35.5811 37 40 79
29.1791 11.1484 35.472 28 38 63
27.3219 -16.3737 34.9459 102 119 152
28.9416 13.8573 34.5951 105 124 113
21.4827 -23.0365 33.6882 38 40 85
29.6119 -7.73738 34.2416 120 123 143
29.4245 11.0954 34.2037 29 41 61
29.2128 9.39972 33.7626 27 40 64
29.0253 11.6446 33.7461 27 45 63
28.9647 12.1002 33.7411 43 62 74
29.0672 13.8314 33.746 107 134 121
29.7365 -7.75823 33.3981 115 110 148
29.851 8.79851 33.3812 28 39 64
26.2118 -17.8635 32.7311 89 100 121
30.7986 4.18655 33.03 90 95 102
29.084 12.9556 32.8907 90 117 120
29.0779 13.8367 32.8888 104 126 116
29.8551 -6.90821 32.553 117 113 158
30.9692 -3.69067 32.6296 110 105 145
28.8659 12.1387 32.4472 38 61 73
13.0241 -29.3623 30.9125 43 44 63
28.865 13.0225 32.0165 89 120 118
28.816 12.5999 31.5846 67 95 96
28.8098 13.4813 31.5824 101 125 116
10.0805 -30.1574 29.3751 31 36 55
29.9551 6.6061 30.8269 65 72 79
28.7117 12.6359 30.7183 66 92 94
28.8205 13.4866 30.7249 103 125 116
-1.19389 -32.693 28.0638 99 113 134
0.258277 -32.4864 28.1763 99 110 132
17.0212 -26.1036 29.4663 29 43 49
28.8312 13.4918 29.8673 102 124 118
-1.18269 -32.6875 27.1674 98 109 131
0.269441 -32.481 27.2822 97 107 135
29.0059 13.8887 29.451 104 125 118
5.40145 -32.455 27.2464 93 96 109
21.6644 -23.0278 28.5271 68 83 99
0.280605 -32.4755 26.3881 98 107 136
31.5729 -2.06174 28.8432 37 54 81
28.6842 12.2237 28.5712 44 69 78
28.8472 13.4997 28.581 102 123 115
5.16403 -32.4067 26.3401 93 96 110
21.1516 -23.3585 27.6236 76 92 102
0.418268 -32.4916 25.5045 97 108 133
28.8099 12.1982 27.7233 44 71 76
28.858 13.5049 27.7235 102 123 115
4.67755 -32.3156 25.4121 95 97 111
21.92 -23.0631 26.8236 55 76 71
26.0506 -17.7817 27.1527 71 94 103
30.8597 -3.18359 27.5108 35 56 72
30.6863 -2.70727 27.4949 35 56 72
29.0512 11.2589 27.3171 30 53 57
28.7181 10.4722 26.8626 29 55 58
28.7599 12.6595 26.8594 68 99 91
0.308514 -32.4619 24.1529 92 108 133
21.9307 -23.0579 25.9624 56 78 83
30.9839 -3.20543 26.6697 36 60 71
29.2914 11.2033 26.48 30 53 58
28.8196 13.0874 26.4339 88 120 112
-0.0600927 -32.3916 23.2256 97 106 126
30.5997 -3.54131 25.7859 33 59 68
28.6798 10.0549 25.5736 28 54 58
28.776 12.6673 25.5731 69 97 90
-1.25394 -32.6386 22.6742 96 110 131
0.381943 -32.0102 22.8151 86 96 111
21.8299 -23.0271 24.6603 60 88 93
22.1731 -22.2188 24.6875 89 118 112
29.1927 11.2416 25.1853 28 55 51
28.8357 13.0953 25.1476 89 120 106
30.6103 -3.53611 24.9347 34 63 73
28.7449 10.4853 24.7197 27 57 53
28.7867 12.6726 24.7156 64 98 87
28.8954 13.5232 24.7222 100 126 114
21.8407 -23.0218 23.799 45 72 71
29.2034 11.2468 24.3287 28 58 53
-1.49174 -32.5871 21.3062 95 109 126
28.6406 10.5208 23.8521 27 60 56
28.7974 12.6778 23.8581 68 98 90
-1.684 -32.0959 20.8379 97 109 124
30.2849 -3.44734 23.6265 35 64 71
29.0993 11.2825 23.4616 28 63 55
28.8571 13.1058 23.4326 88 119 109
30.7395 -2.68127 23.2387 37 69 69
28.3061 10.6171 22.9629 27 64 54
-2.18314 -32.0033 19.8929 93 106 122
30.4691 -3.91844 22.7927 36 71 67
28.8135 12.6857 22.5718 68 100 90
-2.30524 -31.9788 19.4318 94 106 119
25.4832 -18.0553 21.9615 34 72 64
30.9774 -2.73037 22.4088 35 72 70
29.1154 11.2903 22.1765 30 65 56
28.9882 13.0827 22.1571 87 118 107
30.5337 -3.49092 21.9445 35 72 67
28.3222 10.6249 21.676 29 67 53
29.0602 11.7485 21.7405 33 69 60
28.9392 12.6601 21.7252 69 99 90
29.5613 13.8116 21.7787 100 123 109
-2.22326 -32.4407 18.5421 91 110 127
31.1016 -2.75231 21.5688 37 72 68
25.2136 -18.4247 20.651 40 73 67
29.0709 11.7537 20.8835 33 73 57
29.0647 12.6346 20.879 70 102 88
29.403 13.4229 20.9077 102 128 110
26.075 -17.2914 20.2998 44 91 62
30.4359 -3.45613 20.6562 33 74 63
30.8253 -2.24346 20.6882 34 76 67
-1.95117 -32.4758 17.2197 97 111 133
-2.02184 -32.0087 17.2106 96 108 123
30.3157 -1.68171 20.2099 36 79 69
-1.76105 -32.0495 16.7868 95 107 121
30.6259 -4.79826 19.8287 36 78 65
30.5603 -3.47792 19.8159 34 76 63
28.2784 4.50678 19.5538 33 79 58
28.3871 5.35669 19.5604 30 76 55
28.9659 12.6732 19.5818 71 106 87
29.3042 13.4618 19.6112 102 129 107
29.6056 3.73918 19.2598 32 80 59
29.0269 4.76036 19.1976 31 79 57
29.1528 11.3087 19.1778 28 76 49
-1.36766 -32.1093 15.9275 96 108 120
28.0142 10.7344 18.6384 28 76 53
28.9766 12.6784 18.7245 70 108 93
28.9873 12.6837 17.8672 68 105 89
-1.35086 -32.1011 14.582 94 110 115
-1.59436 -32.0521 13.6583 94 107 115
-1.09867 -31.2277 13.7051 65 88 72
29.8484 6.32702 16.704 30 89 54
28.7191 12.3277 16.5537 47 92 72
29.9919 2.79587 16.311 43 103 61
29.0087 12.6941 16.1525 70 107 87
-1.08747 -31.2222 12.8083 66 89 70
29.9733 6.30297 15.8615 45 100 58
28.6148 12.3637 15.6837 48 93 72
22.6777 21.5348 14.5709 54 107 74
22.3158 22.5311 14.5267 60 114 92
23.2247 20.0465 14.203 89 116 79
29.1511 11.793 14.4564 35 88 59
23.4103 19.5531 13.7913 93 111 88
23.0497 20.5457 13.7465 76 112 71
22.5628 22.4695 13.6824 68 114 70
22.9298 21.4764 13.2928 52 104 60
29.2767 11.7676 13.6121 36 88 62
29.7293 12.5253 13.6569 70 111 91
23.1859 19.6238 12.8974 88 114 81
23.0606 20.551 12.8779 74 110 68
22.6916 22.4413 12.8257 58 115 78
23.0584 21.4485 12.437 54 105 60
30.1655 -8.10772 12.9814 38 99 61
31.0601 2.56105 13.0116 154 187 188
29.5168 11.7118 12.7812 36 91 60
22.8756 22.8444 11.9727 69 113 81
23.1946 20.526 11.5883 72 110 67
23.4223 21.3543 11.6083 52 106 60
25.8288 -16.2931 11.6957 52 107 61
29.8712 11.6254 11.9641 37 92 65
29.6964 12.1111 11.9412 51 100 78
23.2076 19.6344 11.161 90 117 83
25.7729 -15.8413 11.2574 33 96 50
31.3034 2.51218 11.7597 174 201 203
23.2054 20.5313 10.7199 75 113 73
23.3706 21.8235 10.7299 66 117 85
25.9481 -15.4382 10.8457 29 96 51
23.2184 19.6398 10.2928 94 117 90
29.5435 11.7248 10.6403 36 95 61
23.4516 20.4707 9.87904 80 113 71
23.6166 21.7623 9.88899 50 104 54
30.0894 -8.93656 10.4211 35 102 56
23.2293 19.6451 9.42456 95 114 87
23.6771 22.1955 9.45831 61 117 70
29.7834 11.669 9.81104 37 93 58
30.3815 -8.56085 9.60019 39 102 61
30.3757 -7.69075 9.59316 38 102 60
31.3615 6.44365 9.60574 35 103 49
23.4128 20.0481 8.57372 91 117 83
23.7504 21.737 8.60102 52 103 77
23.5704 22.2341 8.57626 56 109 80
29.0515 11.4324 8.86909 34 93 58
23.3632 19.6203 8.1364 97 119 92
30.0988 -7.18495 8.70414 39 101 66
23.5962 20.451 7.72326 80 113 74
23.7612 21.7423 7.73321 57 105 59
23.374 19.6256 7.26839 100 120 94
30.2233 -7.20592 7.86645 38 101 61
31.5505 6.84752 7.91816 32 96 50
29.1824 11.4098 7.59746 33 94 55
23.607 20.4563 6.85545 77 113 75
23.8895 21.7144 6.87982 64 125 105
23.3848 19.6309 6.40039 98 119 91
30.0193 7.68838 6.87095 32 96 50
23.5003 20.4946 5.97302 81 115 75
23.5478 21.8194 5.96834 72 122 62
23.1604 19.7017 5.50291 96 117 92
28.6898 11.1169 5.82237 31 94 56
23.399 20.5355 4.65608 82 113 74
23.4465 21.8606 4.65111 69 120 83
23.1766 19.7096 4.20032 98 116 84
23.5274 20.5078 3.803 82 112 70
23.4573 21.8659 3.78271 68 114 76
23.5383 20.5131 2.935 86 115 69
23.4682 21.8712 2.91431 41 93 48
23.4962 19.1915 2.50646 111 119 88
22.9453 22.4743 1.97153 45 98 81
23.0914 19.7584 1.57949 117 126 89
23.3193 20.587 1.60176 89 116 79
23.3117 21.4816 1.59277 58 105 83
28.9795 10.2015 1.57353 27 73 45
23.22 19.7309 0.726725 121 127 100
23.2751 20.1616 0.730044 114 124 91
23.0795 22.4488 0.683312 98 145 121
22.3649 -22.9256 0.573163 30 87 42
28.9787 11.0848 1.13598 35 92 51
23.4456 21.4564 0.305799 75 112 64
29.6001 13.121 0.770525 125 134 107
29.594 14.002 0.761472 136 136 110
6.51634 1.52786 161.942 165 173 202
6.69614 1.1178 160.138 182 214 241
23.9698 18.542 87.7595 117 121 140
24.0475 19.399 87.3448 47 43 87
23.6717 19.868 86.934 35 31 78
23.8706 18.5802 86.474 127 126 148
23.645 18.619 85.6206 129 129 149
23.5966 19.4774 85.6387 48 42 87
23.3708 19.5166 84.7845 49 42 88
23.7762 20.7629 84.8008 29 30 82
23.3063 18.6773 84.339 129 129 149
23.1206 19.9854 83.9386 32 32 79
23.0721 20.8446 83.9567 28 31 80
22.4242 21.7571 83.9874 30 31 79
18.8718 22.935 84.0793 32 30 76
18.8473 23.3679 84.0885 31 30 75
22.6965 19.1762 83.4999 82 80 114
18.2937 24.7218 83.6922 32 34 86
22.9899 20.4443 83.0896 30 32 83
18.6419 22.9762 83.2171 59 70 127
22.4928 20.9254 82.6772 28 32 89
18.3562 23.8743 82.8062 78 81 130
23.0518 19.6038 82.2109 51 44 89
18.3385 24.3171 82.3814 58 61 101
22.8902 20.483 81.8007 30 34 83
22.9455 19.633 81.3522 54 46 93
18.4738 24.3248 81.5117 58 70 112
17.9617 24.8038 81.5288 53 71 120
22.7837 20.5123 80.9418 31 32 85
22.564 20.5615 79.6535 29 32 81
23.0987 19.67 79.1989 53 47 90
19.043 23.4615 79.3185 105 110 152
23.2252 19.6692 78.7672 54 47 92
22.5774 20.5805 78.7921 30 31 84
19.1713 23.4599 78.8837 102 115 186
23.1606 18.8296 78.3202 147 146 167
21.9349 21.5032 78.3859 29 33 95
20.8016 22.4621 78.4155 56 69 139
23.1188 19.6983 77.908 57 48 95
21.4358 21.9862 77.9685 32 33 85
23.0543 18.8585 77.4607 143 143 167
20.815 22.481 77.5515 30 32 79
19.677 23.4438 77.5795 29 33 89
27.0498 -18.1191 76.2385 62 67 116
19.8118 23.4517 76.7128 27 30 77
23.1941 18.8768 76.1688 136 134 159
25.0567 -20.1997 74.485 58 74 141
22.8548 18.9353 74.8793 131 135 162
22.9261 19.785 74.897 52 46 90
30.8653 -5.80528 73.4921 38 32 99
23.1631 18.0841 73.5691 162 176 197
23.066 19.8031 73.6054 52 47 90
23.1522 18.5327 72.7174 157 172 186
23.1992 19.8117 72.7446 53 49 90
30.823 -6.61288 71.7731 33 31 90
23.2074 17.6827 72.2689 158 180 186
23.2853 18.5416 71.8568 155 168 190
23.3323 19.8204 71.8842 56 48 97
3.228 28.2019 71.5471 38 42 92
2.56514 28.7206 71.1085 44 49 97
4.18807 29.4451 71.1322 60 70 108
24.8448 -21.3825 69.7195 48 64 142
23.3039 20.7079 70.6118 30 30 83
23.4947 21.5457 70.6308 28 29 81
23.4076 18.9991 70.1453 130 130 157
4.4557 27.2292 70.1954 31 35 82
3.63495 28.1935 70.2106 39 43 93
2.96602 28.7021 70.217 45 49 100
2.68295 29.1734 70.2252 51 57 105
4.33023 29.4518 70.2422 62 70 112
23.5339 18.9984 69.7158 128 128 154
23.4854 19.8574 69.7339 54 46 90
23.3173 20.7268 69.7514 29 30 80
4.30926 27.6959 69.7589 35 38 87
3.10186 28.6992 69.7714 45 48 99
2.8258 29.1802 69.333 51 58 102
4.47233 29.4585 69.3527 61 69 108
24.5371 -21.7722 67.9837 67 86 138
23.523 19.4468 68.8647 87 85 119
23.3307 20.7456 68.891 29 29 83
3.11575 28.7188 68.879 44 50 96
23.4586 18.6073 68.4155 142 157 171
2.71075 29.2126 68.4392 50 57 100
4.35795 29.4909 68.4615 61 70 109
23.328 19.0658 67.563 124 129 152
23.3508 20.774 67.6004 28 30 78
1.06743 28.9523 67.5209 43 50 98
2.59558 29.2451 67.5449 50 59 106
2.26535 28.4008 67.0755 38 44 90
4.12215 29.546 67.1234 59 71 109
23.1975 19.5246 66.7102 86 87 120
23.2444 20.8034 66.7387 28 30 80
1.34081 28.9464 66.628 45 51 96
2.35812 29.3002 66.202 51 58 102
23.2109 19.5435 65.8494 86 87 120
23.3776 20.8118 65.8797 29 30 80
1.35475 28.966 65.7327 44 50 94
2.24279 29.3327 65.3066 50 59 97
3.76448 29.6238 65.3368 62 72 108
23.344 19.5522 64.9904 85 83 115
1.36868 28.9857 64.8374 42 51 91
22.0072 -22.522 63.6088 154 140 60
23.2602 -21.2355 63.6588 156 137 38
23.3976 20.8401 64.5891 28 30 83
2.2567 29.3523 64.4128 50 58 100
3.64977 29.6563 64.4435 60 71 108
29.8789 -10.2196 63.589 83 88 113
30.389 -6.839 63.6729 33 31 88
29.0534 10.6176 64.0346 30 31 76
29.06 10.627 63.6086 30 30 80
23.2913 20.8695 63.7267 28 33 78
2.45022 28.4667 63.5022 39 43 92
1.90782 28.964 63.503 45 49 99
2.39985 29.3591 63.5211 51 56 104
3.66364 29.6758 63.5519 61 69 110
22.0275 -22.4934 62.3089 155 144 49
26.1733 -19.5164 62.4565 152 134 24
24.8276 19.0394 63.2857 129 132 148
29.8478 -7.21542 62.3751 35 33 91
29.472 -6.77704 62.3771 34 30 89
29.7099 7.63768 62.7025 29 30 84
28.5824 8.98255 62.7094 26 29 83
25.0481 19.457 62.87 87 88 119
23.185 20.8989 62.8639 28 31 81
2.43894 28.9325 62.618 43 49 95
29.8514 -5.08243 61.9961 37 32 101
2.42071 29.3885 62.1806 49 56 99
3.94149 29.6794 62.2194 60 70 107
29.0865 10.6644 61.9043 30 30 84
2.32363 28.9649 61.7218 44 49 97
25.9157 -20.7628 60.702 152 132 29
30.4789 6.77208 61.4226 58 56 110
25.3059 19.465 61.5882 85 85 114
23.2051 20.9273 61.5728 28 30 78
2.56379 29.3953 61.2896 51 58 103
29.029 -6.72254 60.6602 80 81 119
2.46676 28.9718 60.8307 44 50 95
30.842 6.76905 60.5804 49 45 102
29.2025 8.99063 60.5901 28 29 80
24.7002 19.9632 60.7263 51 48 89
3.04025 28.039 60.3766 34 38 82
2.70679 29.402 60.399 50 58 100
3.96923 29.7185 60.4371 61 71 109
3.02204 28.4945 59.9396 38 44 84
29.0985 9.01709 59.7351 28 29 84
24.6186 19.5636 59.8559 85 83 115
2.92524 28.0711 59.4807 33 39 78
2.48762 29.0012 59.4902 42 51 91
4.11161 29.7252 59.549 61 72 108
29.9728 8.12246 59.3119 29 29 86
24.3626 20.0223 59.4296 52 46 87
24.5128 19.5927 58.9942 85 82 110
22.7415 21.4562 58.9872 28 29 77
2.86364 29.4284 58.6158 50 58 98
30.6418 6.83018 58.4498 32 32 92
29.7521 8.15625 58.4545 29 29 84
4.13241 29.7545 58.2126 60 69 107
23.7146 19.2535 58.1033 121 126 142
23.7857 20.1021 58.1247 51 50 84
2.87754 29.448 57.7228 48 59 98
30.5384 6.8561 57.5964 30 29 89
23.8167 19.6822 57.6857 82 81 111
22.7616 21.4846 57.6949 26 29 70
4.14627 29.7741 57.3216 60 70 108
22.8169 20.6338 57.246 32 29 67
2.94177 28.5758 56.811 38 43 82
2.89144 29.4676 56.8298 51 57 99
6.65921 30.4121 56.9682 80 99 119
23.3515 19.7419 56.8114 86 86 109
22.7751 21.5035 56.8333 26 30 70
4.03165 29.8066 56.4269 61 70 108
30.5115 -8.79279 55.9601 35 37 99
22.5903 20.6736 56.3771 33 30 64
2.77631 29.5001 55.9328 50 58 96
21.8051 -24.9268 54.8719 118 106 52
22.5484 21.5437 55.9643 27 31 71
2.98779 28.1594 55.462 34 40 76
4.17401 29.8132 55.5397 60 72 102
6.8071 30.4283 55.6419 80 96 114
23.2276 20.2104 55.5254 53 48 83
22.6037 20.6925 55.5152 32 30 66
30.8785 -6.65543 54.7432 33 32 92
30.573 -5.37165 54.7621 34 32 90
30.7826 -4.95585 54.779 36 33 92
2.66808 29.5424 54.5887 49 61 99
6.69372 30.4608 54.7511 84 97 122
4.32317 29.8296 54.2076 60 72 107
22.6238 20.7209 54.2223 32 31 59
6.58029 30.4933 53.8599 82 96 118
3.22998 29.0746 53.2573 42 51 91
4.72171 29.8104 53.3303 60 72 107
20.3896 -24.867 52.2141 44 78 29
22.3766 -23.5731 52.3203 50 93 32
22.7573 20.7294 53.3647 33 29 61
3.46932 29.5043 52.8297 50 59 99
7.10272 30.4606 52.9911 83 96 122
6.95753 30.9259 52.5527 94 106 128
22.8907 20.7378 52.5075 33 33 55
3.9977 29.4724 51.9568 49 62 93
5.38242 29.7752 52.0192 61 75 105
23.0401 22.4462 52.1223 26 33 63
8.36585 30.8013 51.7197 90 108 130
23.0953 21.5957 51.6736 25 33 67
23.1665 22.4448 51.6964 26 32 65
4.26845 29.4662 51.0755 49 60 98
5.52407 29.7818 51.1351 60 72 105
7.53605 30.0183 51.2243 71 82 111
23.2703 20.7348 51.2297 33 34 60
23.2285 21.604 50.8174 24 33 64
23.1799 22.4637 50.8355 25 35 65
3.9723 28.189 50.1407 33 44 74
3.53613 29.1176 50.1437 43 53 88
4.15385 29.4986 50.1793 49 61 96
5.53791 29.8013 50.2462 60 71 106
3.69697 28.6693 49.6936 37 48 80
23.3617 21.6122 49.9615 26 33 60
23.3132 22.4717 49.9796 26 34 60
3.55002 29.1372 49.2515 42 55 87
4.29619 29.5054 49.2936 50 62 96
5.55174 29.8208 49.3573 59 73 108
23.2971 20.7726 49.5078 32 35 55
4.38538 28.1904 48.3745 32 45 66
5.43777 29.8533 48.4628 60 76 102
23.1422 21.6619 48.6596 26 34 62
4.23876 28.6577 47.9327 36 50 73
5.21835 27.2463 47.5 27 39 58
23.0358 21.6915 47.7928 24 36 60
4.94412 27.7251 47.0526 28 41 61
22.8511 20.8618 47.3326 30 38 51
22.8026 21.7223 47.3507 23 37 57
22.8093 21.7318 46.9199 25 37 55
5.36707 27.2633 46.1716 25 40 55
22.8646 20.8808 46.4709 31 36 52
22.5893 21.7816 45.6151 26 40 58
22.5245 20.9407 45.1597 31 39 54
22.3624 21.822 44.7404 26 39 57
22.5379 20.9596 44.2973 32 40 53
22.496 21.8302 43.8843 26 41 56
22.5675 22.6803 43.909 24 43 55
22.5513 20.9786 43.435 31 41 49
22.3001 21.4493 42.5682 25 44 54
22.3473 22.7306 42.6023 26 43 56
22.1932 21.4789 41.6985 26 46 52
22.1203 22.7714 41.7258 24 46 51
22.3512 21.0565 40.8337 30 44 48
22.254 22.7794 40.8701 25 46 53
22.1539 22.8188 39.5686 24 49 50
4.70091 30.1687 38.1821 58 83 100
6.71966 30.4043 38.3194 65 89 106
22.1673 22.8377 38.7057 24 51 50
3.19027 29.8892 37.6296 51 77 89
4.84295 30.1753 37.2998 59 82 97
6.73347 30.4238 37.4321 65 86 101
22.301 22.8457 37.8506 26 55 47
19.1386 23.5751 37.2206 25 57 51
4.907 29.3058 36.3907 44 74 81
5.36894 30.1428 36.4432 61 85 102
6.59498 30.8994 36.5458 78 95 113
22.1942 22.8756 36.9799 25 58 51
19.2181 24.4397 36.8131 26 59 52
30.9954 -3.27934 36.5089 39 43 87
21.9602 22.907 36.5321 24 60 50
19.2738 23.5829 36.3611 26 61 53
4.53623 29.3638 35.4744 46 76 75
5.15193 29.744 35.527 56 83 89
5.25484 30.1754 35.545 66 89 101
29.3191 12.0852 36.3493 40 58 78
23.888 20.6045 36.1785 47 77 59
19.3532 24.4474 35.9539 31 69 62
30.8919 -3.25563 35.6497 41 42 91
23.6555 20.6348 35.7317 47 78 59
21.9736 22.926 35.6689 29 66 47
19.5303 23.5796 35.5103 28 65 60
29.3324 12.1039 35.497 38 59 77
22.2697 22.0519 35.2359 29 77 69
30.8604 -4.50716 34.7631 68 80 110
23.5492 20.6642 34.8625 46 81 68
23.1413 21.5559 34.8551 37 83 82
21.7705 22.5357 34.7794 51 99 102
19.1302 24.4988 34.6355 75 111 107
17.8372 25.9157 34.5766 109 132 123
17.5436 26.8081 34.5776 73 105 108
30.819 -3.64765 34.3554 92 90 120
29.4629 12.1142 34.6531 40 60 77
23.6287 19.3841 34.4048 101 128 107
19.4291 23.6194 34.2008 85 124 116
18.1373 25.0337 34.1409 119 143 119
22.6312 -22.2798 32.8445 72 93 99
30.7569 -4.48372 33.9031 105 104 143
17.8508 25.9348 33.7068 83 108 70
4.8441 -31.9901 30.8184 98 110 120
23.4496 20.703 33.5622 49 81 66
19.5641 23.6272 33.3424 61 99 101
19.5396 24.0602 33.3515 54 89 91
18.1509 25.0528 33.2716 68 100 92
17.134 -26.157 31.4576 28 35 66
22.7653 -22.2616 31.9873 99 106 130
30.8389 -3.6196 33.0782 116 110 143
19.0355 24.5483 32.891 53 75 47
17.8643 25.9539 32.8371 45 73 56
4.85805 -31.9704 29.9222 99 109 124
23.1763 19.4626 32.6469 100 129 109
23.2234 20.7429 32.6831 46 85 61
22.1653 22.5504 32.6473 27 85 86
19.9418 23.6127 32.5025 58 108 106
18.1644 25.0719 32.4022 61 107 88
22.8459 21.2142 32.2341 36 73 41
17.8928 -26.1278 30.2024 29 41 54
26.2079 -17.1047 31.089 78 78 89
22.8769 20.7932 31.7939 47 87 70
22.3477 21.6969 31.7753 39 85 85
22.2031 22.1385 31.7751 67 105 114
21.0205 23.9631 31.7284 171 183 188
16.3894 26.5595 31.4292 94 125 139
29.9387 6.64147 31.5631 72 78 103
29.3229 11.3453 31.6344 31 44 62
23.1721 19.9212 31.3633 97 126 104
4.62787 -31.9339 28.109 100 108 121
30.7793 -3.99308 30.9315 81 91 135
23.1788 19.9307 30.9325 97 125 106
22.8903 20.8122 30.9318 43 94 78
22.2409 21.7265 30.903 73 116 127
21.5412 23.5057 30.8922 120 123 165
15.4426 26.238 30.471 117 145 170
29.315 9.66932 30.7366 30 46 68
27.095 -15.3585 29.0531 72 89 87
29.3283 9.68805 29.8839 29 47 63
21.8755 22.2183 29.5883 139 176 213
21.5614 23.5342 29.5961 124 153 191
30.9225 -3.96054 29.238 81 95 113
31.8515 -1.88304 29.3694 36 54 77
29.4253 12.2349 29.5306 44 69 76
22.0513 21.3548 29.1481 71 110 102
2.87498 -32.3535 25.7042 97 108 123
27.2269 -15.342 28.2045 89 107 131
31.7418 -1.86839 28.9349 36 56 73
21.6236 22.6904 28.7139 146 151 157
27.0205 -15.7566 27.7461 77 100 110
29.2521 11.4191 28.6407 32 53 66
29.18 12.6964 28.6676 64 89 91
21.2439 23.1644 28.2609 113 117 138
2.88898 -32.3338 24.8047 97 112 119
21.6857 21.8465 27.8316 109 147 143
21.3957 22.7312 27.8296 132 146 155
31.3883 -1.3998 27.639 36 56 71
29.0759 12.7237 27.8049 63 90 92
21.6992 21.8655 26.9676 114 152 154
21.2884 22.7612 26.9548 162 181 201
2.93533 -32.7533 23.4459 96 111 128
30.7496 -2.19886 26.7094 35 58 70
20.4243 23.2799 26.4585 153 150 155
26.1538 -18.6966 25.4404 30 53 53
29.0025 12.3344 26.5062 44 72 76
22.0023 21.0006 26.1063 57 102 71
30.2951 -2.15909 25.8161 36 61 72
21.7193 21.894 25.6715 106 135 119
21.1879 22.8007 25.6472 110 117 124
20.4133 23.7313 25.6016 70 82 90
18.1261 25.6703 25.4459 91 114 111
3.73467 -32.714 22.1678 97 114 133
26.381 -18.2515 24.6105 30 52 53
27.1157 -16.5482 24.7221 35 58 55
22.0157 21.0195 25.2426 58 103 63
30.5664 -2.57629 24.976 35 64 68
22.5524 20.1252 24.8358 97 128 97
22.2389 21.4389 24.8415 68 107 87
21.3221 22.8087 24.7932 89 100 108
20.3056 23.7616 24.7248 69 80 89
17.8952 25.7128 24.5545 77 117 93
15.0194 26.8565 24.3202 84 120 110
14.1285 27.3781 24.252 92 123 127
3.74865 -32.6943 21.2696 97 110 133
26.3944 -18.2326 23.7503 29 56 54
21.9805 21.9009 24.3972 76 117 101
18.3174 24.8192 24.1343 71 94 74
22.4213 20.5854 23.971 76 114 71
22.3726 21.4472 23.9892 42 97 51
21.4562 22.8167 23.9395 91 125 128
20.1979 23.7918 23.8475 81 115 118
14.6375 27.3488 23.4211 66 111 91
3.63306 -32.6761 20.359 96 111 126
21.9939 21.9199 23.5335 40 101 66
19.5489 24.7236 23.3768 90 133 107
18.1844 25.2839 23.2628 73 120 75
17.7932 25.7532 23.2383 59 109 70
29.0489 12.4 23.5204 46 78 73
19.5557 24.7331 22.9431 75 121 92
3.51742 -32.658 19.4481 94 110 121
22.9935 21.4225 22.7508 39 91 44
21.7177 22.8232 22.6654 45 97 59
18.4421 25.2798 22.4161 59 111 77
17.8068 25.7723 22.3682 62 113 87
29.1555 12.8361 22.6874 63 97 87
19.7395 23.8748 22.0689 53 113 85
3.40173 -32.6399 18.5367 95 110 129
18.358 24.8765 21.5262 73 126 96
18.0893 25.3337 21.5121 74 126 102
29.0995 12.0115 21.8052 32 72 59
23.2535 21.4296 21.4806 42 96 48
22.629 21.9135 21.4321 43 102 54
3.13084 -32.1743 17.6214 95 111 116
23.6749 20.5567 20.6359 73 113 66
23.3868 21.4379 20.6306 42 98 49
22.8894 21.9204 20.1617 50 105 62
23.8079 20.5652 19.7866 74 111 69
23.4002 21.4568 19.7691 49 101 61
29.226 12.4758 19.6932 46 86 69
22.5424 21.9716 19.2633 55 110 77
23.2937 21.4864 18.8955 47 96 53
31.7396 -2.90723 18.6854 42 98 71
28.9889 6.56881 18.6544 34 83 60
28.8232 7.42885 18.6604 34 82 61
29.17 11.6512 18.8103 31 81 59
29.0979 12.929 18.8373 66 103 86
22.9876 22.8084 18.4674 46 103 49
28.9261 5.7326 18.1974 34 86 60
31.472 -2.02895 17.8287 77 128 114
29.0716 7.43278 17.8308 33 84 59
29.0725 11.6876 17.5184 29 84 55
28.6238 13.418 17.5175 85 114 100
30.854 -1.13342 16.934 43 104 69
18.8542 24.089 16.3302 29 91 52
29.8645 8.26016 16.6556 30 89 52
28.7547 13.428 16.6761 88 115 104
29.0925 11.7157 16.2384 30 86 58
29.9949 8.2713 15.8159 31 90 57
28.6504 13.4555 15.8097 84 113 102
19.483 24.061 15.0923 52 106 64
30.4213 9.1005 15.4587 33 92 58
23.5954 19.4102 14.9853 101 122 97
29.8249 5.33257 14.8624 70 130 92
28.8053 13.0392 14.9597 72 108 94
19.861 24.0462 14.2643 59 121 80
20.0793 24.4564 14.2998 63 123 81
30.0598 9.56788 14.5775 32 93 51
23.2719 21.1708 14.1337 55 103 68
25.8208 -15.4079 12.9853 34 89 42
23.0144 21.6319 13.6853 52 104 64
25.8033 -14.9685 12.5638 31 90 43
29.0003 10.0932 13.1895 31 98 52
29.9963 7.06773 12.7931 42 104 56
30.4237 -8.6532 11.981 32 98 51
29.4927 7.96764 11.9047 36 105 56
30.7386 8.74419 11.6456 35 102 55
22.6524 22.592 10.6434 54 110 84
30.8685 8.75519 10.8083 34 103 54
29.7537 7.99005 10.2263 35 104 58
22.5456 22.6218 9.76637 55 108 73
24.8856 -16.5844 8.52254 36 92 52
22.9614 21.7373 9.35945 48 101 67
22.5591 22.6408 8.90328 43 105 62
22.3902 23.5137 8.90709 51 112 59
22.8548 21.767 8.48249 51 109 84
20.5618 24.123 8.26685 54 111 58
30.9975 7.1027 8.64537 39 102 62
21.5114 24.474 7.95991 44 107 74
22.5792 22.6692 7.60865 53 104 85
28.8007 13.2073 7.68901 77 113 95
22.8749 21.7954 7.18844 50 107 70
24.8062 -16.5255 5.91883 57 118 69
22.9546 20.5127 6.72985 98 132 90
22.8816 21.8049 6.75709 56 115 87
22.7129 22.6772 6.76041 83 141 120
28.6964 13.2348 6.82047 75 117 93
23.6928 -17.7811 4.87576 31 90 45
22.7277 20.5525 5.83705 98 128 83
22.6547 21.8453 5.8643 50 100 47
22.4858 22.7181 5.86742 65 113 61
24.3714 -16.9199 4.55373 30 89 44
24.8731 -15.2067 4.66677 31 90 46
30.2619 -5.95264 5.62165 35 102 56
30.1657 -4.24852 5.65758 39 103 60
28.5225 12.4177 5.91867 41 97 63
28.7163 13.2629 5.53938 83 120 100
22.8613 20.561 4.98921 101 131 89
22.6925 21.4333 4.99213 52 100 65
30.3497 7.22149 5.15206 36 103 58
22.5303 22.3155 4.56341 74 120 83
28.7565 10.7313 4.61622 29 82 53
28.6147 11.1661 4.61004 33 92 57
28.4248 12.4544 4.62184 40 97 61
28.4702 13.7257 4.664 106 126 101
20.9679 24.6164 3.99151 70 118 65
29.6298 -4.61343 3.86539 36 103 60
22.7613 20.5999 3.67933 105 128 81
22.5924 21.4724 3.68196 50 98 48
22.2788 22.7873 3.67813 48 106 62
18.7397 25.6998 3.29479 39 95 50
28.8873 10.742 3.77733 32 85 54
28.7216 11.6031 3.77995 36 96 55
28.4381 12.4732 3.76722 44 96 68
28.3658 13.7533 3.7942 117 131 109
27.3738 14.679 3.6891 127 131 111
22.7747 20.6189 2.81624 111 125 77
22.4856 21.502 2.80293 52 93 40
22.2922 22.8063 2.81445 33 94 49
20.625 24.6791 2.64561 37 96 59
18.7532 25.7188 2.42564 37 96 66
28.9247 10.3343 2.91428 27 73 54
28.7349 11.6219 2.92571 36 99 54
28.5691 12.4834 2.92814 44 97 69
28.2614 13.7809 2.92402 122 134 104
27.5053 14.6887 2.84855 132 136 102
21.9442 22.8582 1.90293 52 113 87
21.775 23.7324 1.90516 50 110 87
20.5173 24.7096 1.76338 63 120 90
22.1446 21.5625 1.45957 54 97 67
19.0173 25.7241 1.15435 92 139 114
28.589 12.5116 1.64649 46 98 67
22.5611 20.6777 1.0578 112 128 88
20.4097 24.74 0.880743 108 144 99
28.4298 13.3829 1.22133 115 141 125
22.8326 20.2353 0.649433 128 133 95
22.3988 21.5601 0.628002 57 99 65
22.1093 22.4443 0.613705 86 136 114
18.665 25.7783 0.236325 79 120 72
9.27934 -6.30067 161.893 242 253 249
9.20335 -5.42122 161.904 163 183 190
9.00168 -4.55912 161.936 152 174 194
9.41059 -6.24958 160.987 242 254 239
9.43818 -5.78443 160.54 223 239 229
9.21729 -5.33689 159.691 167 185 185
24.9364 19.1464 86.7922 32 35 87
24.7803 18.2981 86.3453 81 76 111
24.9212 18.7524 85.9271 45 40 83
24.8267 19.1841 85.5156 35 35 91
19.456 22.9609 85.7887 28 29 84
21.3057 21.8577 85.2711 27 29 81
18.9028 23.7848 85.3988 28 29 81
21.5465 21.895 84.836 28 29 82
19.3415 22.9834 84.9314 28 29 79
30.8418 -6.96076 83.2795 27 28 83
30.3172 -5.74721 83.3306 29 28 82
24.8348 19.2329 84.2356 35 35 88
17.4098 24.9767 84.6142 32 30 78
21.1947 21.8962 83.9871 35 35 93
19.9296 22.6714 83.1839 105 120 153
30.1527 -4.41847 81.6661 29 28 88
23.8466 20.4798 82.5899 29 32 93
21.4197 21.538 82.6821 63 73 116
29.1608 -16.2133 80.8958 29 30 72
19.935 22.7042 82.3241 91 99 141
21.3059 21.5601 81.8265 81 89 132
30.7429 -4.28819 80.3752 31 28 86
30.7812 -3.42557 80.4015 30 27 87
24.9304 18.5045 81.2207 95 87 116
23.3819 20.4855 81.3173 28 32 94
20.5166 22.36 81.4396 80 95 129
21.3113 21.5928 80.9684 82 93 137
30.7483 -4.2557 79.5224 36 34 88
20.4026 22.3823 80.5827 82 98 131
21.8693 20.8221 80.0736 26 33 102
14.4494 25.7581 80.3782 101 112 131
13.7632 26.5645 80.4176 99 103 122
21.7743 21.256 79.6602 37 44 97
20.408 22.4151 79.7234 93 110 136
30.9888 -4.17446 78.2401 39 37 97
21.8747 20.8548 79.2161 28 32 84
14.4548 25.7912 79.5108 96 110 161
13.6464 26.5881 79.5513 108 122 167
30.082 -14.203 77.5026 62 70 117
19.9594 22.8516 78.4547 55 54 112
20.8561 21.6813 77.5417 28 28 86
19.8451 22.874 77.5963 26 30 81
-4.31776 28.8189 77.7075 63 77 119
20.1661 22.0798 76.7044 27 27 86
19.4911 22.8758 76.7401 26 27 82
18.6187 24.5122 76.8066 26 27 82
-3.98051 27.973 77.2261 43 50 97
-3.66378 28.8827 77.2523 63 76 117
29.0029 -15.1469 74.9088 92 98 145
-2.49264 28.9836 76.7929 63 73 114
-2.25579 28.5922 75.8828 51 61 104
29.1089 -15.5163 73.6039 90 97 139
31.1945 -10.4317 73.7565 31 34 85
31.2326 -9.56461 73.7858 51 57 103
31.159 -11.2833 73.2998 36 34 81
31.0834 -10.4168 72.9025 56 59 119
31.1216 -9.54955 72.9321 74 81 138
24.572 20.0493 73.1582 32 29 88
-2.50077 28.6585 73.6517 53 63 109
-0.637488 27.5203 72.2607 33 37 84
-1.74361 28.3219 72.2944 46 51 102
-2.23328 28.7283 72.3112 52 60 110
-0.760632 27.5447 71.3699 36 36 87
-1.24894 27.95 71.386 42 42 93
-1.73799 28.3559 71.4021 46 49 102
-2.22766 28.7623 71.4183 54 59 108
24.9771 18.4842 70.5361 135 140 156
-1.37245 27.9744 70.4942 38 43 94
-2.99698 28.7572 70.0775 51 61 108
24.9291 17.2839 68.3543 134 154 177
-1.85039 28.4484 68.7248 41 51 96
30.3643 -14.1936 66.769 51 55 94
24.8345 17.7162 67.9423 134 154 174
30.4866 -14.1423 65.9128 48 57 97
30.2914 -13.3076 65.9433 43 50 99
-4.15077 28.7752 67.3873 53 65 107
-4.14512 28.8094 66.4912 54 65 110
30.1243 -14.5853 64.6059 60 77 82
-1.60262 28.1254 66.0326 39 43 90
-1.57222 28.5862 65.6036 43 51 97
30.0902 -12.8269 63.8141 45 54 112
0.793341 27.4544 65.1321 31 32 84
-1.20399 28.2218 64.2528 40 44 90
-0.532312 28.712 64.2783 44 51 97
-1.14911 29.1086 64.2878 53 63 107
30.5436 -5.38213 62.8213 27 28 83
-0.398088 28.7553 63.3896 44 51 98
-1.01456 29.1518 63.3984 53 63 108
-0.493873 29.2226 62.5153 53 65 106
29.2989 -15.3781 58.9743 69 82 61
1.93276 29.0743 59.4325 43 53 94
3.48541 29.624 59.4833 53 67 104
29.0719 -15.3667 57.6788 65 71 85
0.373652 28.5383 58.9369 38 44 87
