ply
format ascii 1.0
element vertex 1330
property float x
property float y
property float z
property uchar red
property uchar green
property uchar blue
end_header
6.1948 33.5644 5.70181 75 64 84
29.989 10.7957 5.67305 98 107 94
5.64439 33.8218 5.22749 54 50 93
16.9394 27.96 5.62836 144 149 43
15.4358 28.6994 5.51239 152 160 119
6.84777 32.4977 4.79519 142 130 35
6.08349 33.5597 4.82468 76 65 88
5.97253 33.5355 4.37533 79 66 90
17.7962 27.4478 4.83303 162 175 136
14.5736 29.291 4.61478 160 169 144
12.7378 30.8099 4.55125 156 159 72
6.73661 32.4927 3.91787 142 132 34
5.53262 33.8366 3.92131 56 50 96
15.6498 28.8454 4.28389 154 162 114
6.07921 33.1621 3.48063 122 112 93
28.2082 10.9948 3.32781 152 168 183
17.4739 27.8056 3.9838 157 158 93
15.004 29.0528 3.7926 164 176 138
12.7372 30.8484 3.70211 157 159 72
28.6309 10.7466 2.93177 157 173 180
15.6492 28.8838 3.43719 152 164 119
6.73572 32.551 2.63364 144 128 45
5.42085 33.8515 2.61454 56 49 95
6.29963 33.3077 2.23933 116 104 107
14.1406 30.1173 2.52866 165 177 138
9.25423 31.3197 1.97646 146 132 41
7.06654 32.7212 1.84298 128 107 84
6.52052 33.4143 1.85491 99 87 111
28.4282 10.2487 1.56356 157 169 193
5.53086 33.9533 1.35112 51 47 97
15.0026 29.149 1.67399 155 139 97
28.5253 10.7944 0.801207 147 158 191
7.07164 33.6901 0.681646 48 45 96
21.422 25.0646 1.22817 140 123 178
16.5052 28.9377 0.165456 47 46 105
18.0362 -26.5566 82.9506 90 100 92
30.2767 14.2867 84.7089 73 78 51
18.526 -26.6746 81.6031 92 104 88
23.8448 22.5225 84.7486 96 102 51
15.3796 29.5051 84.6891 111 118 16
2.5048 32.5252 84.7541 126 139 95
18.9122 -26.894 80.6972 94 105 90
3.95942 32.4281 84.3355 125 142 106
18.379 27.4935 83.7507 79 88 65
15.1847 29.4325 83.8402 115 126 23
4.43167 32.2422 83.9021 125 141 104
3.18223 32.4823 83.9037 124 137 78
2.23507 32.9026 83.9203 117 129 42
18.476 27.6001 82.9184 74 85 45
9.52845 30.443 82.9941 120 125 14
8.39354 30.7389 82.9994 117 128 21
21.9922 24.9265 82.3674 86 107 36
7.08753 31.4472 82.6043 124 138 86
4.16277 32.6423 82.6453 117 127 33
3.79213 32.9354 82.2331 114 125 20
21.8968 24.9127 81.5264 103 94 75
18.3798 27.6102 81.6572 114 114 66
9.62849 30.5735 81.7312 119 126 12
8.29405 30.7498 81.724 119 129 30
20.5264 25.5685 80.7109 80 80 46
18.2833 27.5969 80.8143 109 108 55
9.42965 30.5009 80.8747 119 123 14
8.19432 30.7371 80.8716 119 129 32
22.5962 23.9513 80.2134 105 106 44
9.4987 30.1007 79.9992 122 128 13
22.5965 23.9978 79.3774 128 134 27
8.19478 30.8078 79.6011 121 131 21
8.0966 31.0311 74.512 120 129 18
20.8901 25.6777 74.0054 103 103 40
9.27065 29.8264 73.5993 125 130 12
9.43963 29.4855 72.7267 124 132 14
0.35886 31.9298 72.6675 118 130 63
8.83435 30.6365 71.9493 121 126 11
7.52831 31.3212 71.9658 124 134 55
0.359175 31.9775 71.8114 118 131 72
1.04168 31.9349 70.9685 123 136 93
8.90344 30.2595 70.6451 123 126 10
9.00363 30.3666 69.806 124 128 15
24.2105 23.1207 69.281 87 89 70
6.38869 31.761 69.4098 128 140 76
5.61544 31.7906 69.3871 128 140 82
24.2315 23.6493 68.9057 75 79 64
9.10381 30.4738 68.9672 123 126 13
3.11719 32.2938 68.9189 121 135 74
2.16865 32.7145 68.9221 121 134 80
20.1458 26.0035 68.5438 82 92 50
13.6787 30.3296 68.6846 129 137 20
10.2382 30.2017 68.5576 128 132 16
8.56723 31.1531 68.5801 123 128 20
6.08677 31.6287 68.5358 124 136 43
5.41373 31.7182 68.5205 122 133 48
4.94205 31.9277 68.5219 123 133 55
11.3695 29.9303 68.1491 129 134 17
24.1368 23.6585 67.6451 116 126 30
14.4082 29.8444 67.8242 121 129 17
10.139 30.1889 67.7034 126 134 16
9.20405 30.6044 67.7055 124 127 12
8.19914 31.4683 67.743 120 129 18
5.31298 31.7056 67.6617 121 132 42
3.42287 32.5446 67.666 121 131 61
23.2263 24.0863 67.2293 121 126 36
12.132 29.9499 67.3294 127 137 17
6.85965 31.6702 67.2867 121 131 26
4.84129 31.9389 67.2374 122 133 50
2.84766 32.7188 67.2322 118 132 64
8.19945 31.5155 66.896 122 131 16
5.21223 31.6931 66.8025 121 130 40
0.538309 33.3462 66.7734 122 136 116
-3.0928 33.6854 66.6704 132 143 129
24.2116 23.2836 66.3572 105 108 56
23.1311 24.0723 66.3848 101 105 61
15.8652 28.852 66.5257 125 135 16
10.8049 30.1718 66.4516 125 132 17
9.23554 31.1822 66.4802 121 126 9
2.94976 32.8261 66.3886 120 132 62
5.38098 31.3512 65.9247 123 130 32
3.52516 32.6994 65.9711 122 133 59
1.11718 33.2426 65.9274 122 136 97
-0.761934 33.1256 65.8466 121 137 129
-3.71731 33.3724 65.7568 126 135 102
24.4766 23.0067 65.5039 83 86 51
23.1314 24.1188 65.5489 83 89 57
8.96772 31.5569 65.6523 121 128 13
-1.96448 32.9403 65.3542 126 140 133
-2.75574 32.9716 65.3267 128 140 128
2.95023 32.8973 65.1102 123 134 59
-3.30025 33.6609 64.9339 116 127 60
5.38145 31.4223 64.6486 123 133 28
3.42396 32.7107 64.6843 120 134 59
0.230857 33.2856 64.6086 127 137 116
-1.65333 33.1686 64.5239 127 136 101
-2.65151 33.0797 64.4767 119 127 76
4.90951 31.6554 64.2227 122 131 38
2.74678 32.8251 64.2392 118 132 75
4.33569 31.8287 63.787 123 135 48
3.69425 32.4284 63.8141 121 135 68
16.4702 27.92 63.5123 128 132 19
9.60441 31.0794 63.5102 124 129 12
2.91543 32.4826 63.3586 121 138 107
-1.54931 33.3004 63.2468 93 77 33
-3.3796 32.7293 63.1201 97 81 36
-4.65678 32.9731 63.089 108 103 56
3.65969 31.9661 62.915 124 133 56
2.33915 32.6569 62.9215 137 140 129
-4.59285 32.5424 62.6199 95 89 62
8.93761 31.2151 62.6439 122 126 13
5.1459 30.9107 62.4547 123 129 18
4.40317 31.45 62.4717 122 128 28
3.28783 32.2599 62.4973 124 135 77
1.86445 32.8913 62.4936 121 103 97
16.4706 27.9902 62.2516 128 132 19
4.09879 31.3171 61.5897 119 130 27
3.35476 31.8572 61.6064 121 134 48
2.40591 32.2778 61.6031 124 133 99
1.82861 32.4521 61.1643 139 134 109
3.21796 31.3337 60.6944 119 129 31
2.67681 31.9948 60.731 122 130 71
2.43696 31.4106 59.8071 118 128 33
21.3523 26.2663 59.7847 106 105 52
3.35179 30.5022 59.3352 119 129 12
2.97903 30.7964 58.9156 120 128 10
1.85925 31.6084 58.9389 122 129 48
0.906806 32.0776 58.0772 130 139 82
2.16097 30.3836 57.5464 119 129 9
1.34688 31.3781 57.6015 119 129 31
0.0555036 32.5839 57.6532 131 118 90
1.95605 30.2861 57.0962 121 129 11
1.78735 30.7023 56.6974 123 131 13
0.598785 31.9683 56.7598 125 133 59
-0.0472203 32.5714 56.7854 137 126 100
26.4664 22.3046 56.7187 113 123 19
1.58236 30.6288 55.8183 122 130 12
0.664818 31.5636 55.8622 119 130 22
-0.459485 32.3783 55.8834 144 134 111
-1.24823 32.4328 55.416 125 96 94
0.318759 30.9161 54.9177 123 130 18
0.0844049 31.762 54.989 120 132 49
-1.72748 32.6686 54.9821 100 56 53
1.4801 30.6397 54.5214 122 129 13
0.760087 30.2625 53.5818 122 131 9
-4.77646 31.9541 53.4459 87 31 51
-1.05215 31.1915 53.1428 127 135 50
-5.89154 31.8258 52.9363 90 40 54
-6.65101 32.3741 52.9493 110 74 91
-2.19479 30.5461 52.5802 126 136 49
-3.91419 31.5643 51.7185 117 94 66
-5.99649 31.8372 51.6261 97 30 38
-6.65053 32.4464 51.6509 104 42 54
33.338 4.53526 50.6716 123 102 15
17.3961 28.1412 52.177 134 136 17
-4.18753 31.9224 51.3055 96 52 41
17.1302 28.4897 51.7752 133 135 15
-3.91372 31.6364 50.424 130 112 79
-4.46056 32.3287 50.0295 83 43 53
-5.21755 32.8758 50.0411 87 60 75
-6.81858 32.9387 49.9511 108 103 129
-4.12289 31.5627 49.5353 134 119 96
-4.35566 32.4133 49.6107 77 49 72
-5.04857 32.529 49.1463 84 77 92
-4.79752 33.1659 49.2292 104 106 108
-5.38582 33.3186 49.2091 122 125 125
-4.2506 32.522 48.7609 92 96 103
-5.76432 33.6165 48.783 101 100 82
22.1795 -25.1877 43.821 99 111 135
-4.12241 31.6349 48.2402 133 139 118
-4.7972 33.214 48.3665 109 107 85
-4.25028 32.5701 47.8982 122 113 95
22.0783 -25.1646 42.0283 100 114 133
27.0737 19.2485 47.1944 89 98 91
9.54887 30.9846 46.9004 130 133 9
8.91231 31.6043 46.5 129 129 7
7.94287 31.5141 46.4255 128 128 10
9.44958 30.9956 45.6165 132 133 4
7.47349 31.7703 45.5682 129 132 17
10.0863 30.4231 45.1701 134 136 13
8.8128 31.6154 45.2157 130 131 6
30.5229 15.1757 44.45 147 159 177
9.61858 30.6548 44.7375 136 135 14
8.71298 31.5793 44.7784 129 130 7
7.27284 31.698 44.692 127 132 19
17.492 26.6824 43.9905 139 148 58
9.51909 30.6421 43.8763 131 135 11
8.71329 31.6265 43.9308 127 129 7
7.27315 31.7453 43.8428 126 130 19
30.8164 12.9314 42.9524 142 157 173
16.9329 26.8505 43.5464 136 141 30
17.8782 25.0239 42.5578 154 170 187
17.2001 26.5714 42.6862 139 148 57
16.0798 26.861 42.6383 133 137 17
9.51956 30.7129 42.605 131 133 7
8.71376 31.6973 42.6595 126 128 9
7.47458 31.9358 42.5971 127 131 29
16.79 27.8138 42.3755 135 137 14
9.15117 31.0047 42.1852 128 131 5
6.63483 32.4378 42.1664 133 144 72
17.9038 25.5795 41.7756 156 171 180
17.1029 26.5578 41.8298 139 148 55
9.41998 30.7001 41.7431 130 132 6
8.614 31.6847 41.7976 125 129 4
7.30638 32.3714 41.7808 128 138 49
6.26501 32.7307 41.7456 135 147 91
16.9337 26.9678 41.441 136 144 26
16.8877 27.9207 41.5483 133 140 16
10.0572 30.1274 41.2972 132 134 9
7.94474 31.7977 41.3344 125 130 10
5.79416 32.9641 41.3102 134 148 100
17.4676 26.3391 40.9838 153 165 107
9.42029 30.7473 40.8953 131 133 8
8.61431 31.7319 40.9499 127 127 8
7.50751 32.538 40.961 127 136 59
5.69332 32.9281 40.8706 134 149 106
-9.92594 30.2192 39.3839 140 152 82
-10.479 30.8949 39.4214 134 144 89
17.6373 25.976 40.5301 157 172 145
16.1785 27.0389 40.5445 134 140 19
9.25174 31.159 40.5042 129 131 6
6.16468 32.742 40.4565 137 151 111
-10.0951 30.6431 38.9817 140 152 91
8.34596 32.1074 40.1203 128 130 9
16.3743 27.2066 39.7308 135 141 18
9.62045 30.938 39.6532 131 134 10
9.08337 31.5941 39.6896 131 129 6
7.23913 32.9373 39.7067 133 146 71
8.81498 31.9458 39.284 130 127 10
-9.98738 30.7777 37.6886 147 155 111
17.4684 26.4564 38.8783 157 166 104
10.4567 30.509 38.8143 132 138 12
9.62076 30.9852 38.8058 134 134 10
9.08368 31.6413 38.8422 130 129 6
8.07777 32.5064 38.8668 127 130 15
7.23945 32.9845 38.8584 129 136 38
-10.0944 30.7403 37.2367 146 156 115
23.8939 23.6266 38.6212 150 168 184
8.98392 31.6052 38.4035 129 129 3
-9.92498 30.365 36.7659 145 159 114
21.6309 25.1713 38.2062 156 170 191
20.9803 25.254 38.1645 157 172 189
9.35253 31.3604 37.9766 132 133 7
-8.68586 30.6072 36.4542 144 156 118
-10.0941 30.7889 36.3643 147 158 119
-10.4779 31.065 36.367 145 155 124
21.7046 24.749 37.7391 154 170 194
20.2322 25.2995 37.6878 154 172 188
10.4571 30.5798 37.5441 132 136 9
9.9895 30.7879 37.5318 133 135 9
8.17842 32.6368 37.6104 126 131 19
17.8584 26.7919 37.2548 157 164 106
-8.47221 30.7789 35.6154 143 159 123
21.6088 24.7351 36.8852 128 130 97
9.353 31.4312 36.7056 133 130 7
8.34721 32.2963 36.7293 126 130 9
29.7114 10.563 35.3912 90 100 130
17.956 26.8991 36.4287 153 164 107
10.4576 30.6505 36.2738 134 137 9
9.98996 30.8586 36.261 133 135 9
8.88468 31.6634 36.269 129 128 6
-8.57856 30.7658 34.7287 145 153 94
21.247 25.046 36.0489 95 105 113
9.05359 31.2991 35.8114 131 133 8
8.41603 31.8959 35.8321 126 129 8
29.6169 10.5459 34.5322 110 110 139
10.0594 30.4579 35.3643 137 137 11
9.69098 30.726 35.3667 137 137 13
22.2371 24.2397 35.1871 108 122 92
21.2473 25.0927 35.2099 121 135 98
9.22267 30.9581 34.9294 133 133 9
8.38471 31.4353 34.9184 128 130 4
7.10785 32.6304 34.9596 126 133 22
29.7121 10.657 33.7047 74 68 90
10.7266 30.417 34.562 132 140 8
30.7978 9.89367 33.277 61 56 34
22.1414 24.2257 34.3327 78 73 51
21.2476 25.1394 34.3709 101 105 85
8.35328 30.9741 34.0034 132 132 10
29.6175 10.6399 32.8452 69 91 67
9.29204 30.5806 33.6068 131 135 5
8.25313 30.9377 33.5626 132 132 6
7.51376 31.4757 33.5668 130 127 7
6.70581 32.4627 33.6215 133 135 26
30.7036 9.87643 32.418 94 112 93
22.5035 24.0085 33.4918 73 91 149
10.3288 30.2478 33.2271 134 142 8
29.6953 10.232 31.9509 98 99 93
23.5351 24.1931 33.1826 123 124 142
9.09227 30.5077 32.7257 135 136 10
8.15307 30.925 32.6968 131 131 5
7.31289 31.4031 32.6843 128 128 6
23.6307 24.277 32.7801 111 111 126
10.3291 30.295 32.3796 135 136 13
6.57265 31.9654 32.2628 128 134 18
8.42264 30.6434 31.829 135 136 10
7.3132 31.4504 31.8341 130 129 8
6.5728 31.9891 31.8375 130 137 35
30.9548 9.1246 30.6461 111 114 128
29.6183 10.7573 30.7366 65 68 73
23.8008 23.9389 31.9088 72 65 47
21.6106 25.0154 31.8521 68 72 58
16.5987 28.2795 31.8249 149 151 111
10.13 30.2221 31.4989 135 138 9
9.56172 30.3702 31.4674 135 138 10
23.3445 24.165 31.4755 53 77 96
18.0551 27.2406 31.3977 154 162 97
15.3361 29.487 31.4433 141 144 20
30.9716 9.69095 29.8712 95 95 80
30.3427 10.2795 29.8906 82 91 71
29.6186 10.8043 29.8931 86 97 82
8.99295 30.5658 30.5867 137 136 12
7.78416 31.3123 30.5742 132 129 5
6.94353 31.7907 30.5602 133 128 25
15.3364 29.5339 30.6012 138 140 14
8.15401 31.067 30.1479 134 131 6
23.345 24.235 30.2191 80 67 48
8.42342 30.7617 29.7049 137 134 8
7.31398 31.5688 29.7086 133 127 7
30.3432 10.35 28.6259 80 86 122
29.6965 10.42 28.5756 77 85 114
15.3367 29.5808 29.759 140 142 18
8.15432 31.1143 29.2983 131 131 4
6.74249 31.742 29.2504 136 124 23
23.5365 24.4029 29.4152 74 94 81
8.42373 30.809 28.8553 135 137 9
7.21365 31.5562 28.8412 130 129 7
4.5841 32.9351 28.7784 143 117 117
18.8801 26.9108 28.8895 142 153 141
15.337 29.6277 28.9168 141 143 17
8.05426 31.1016 28.4314 134 133 9
6.84361 31.8493 28.4169 132 129 34
29.697 10.4905 27.3098 97 99 95
23.3456 24.3283 28.544 109 124 138
4.48298 32.9228 27.9087 129 113 101
30.8002 10.2457 26.9566 83 68 66
8.45589 31.3888 27.6514 138 135 10
7.4154 31.7471 27.6005 135 132 17
6.94463 31.9565 27.5838 134 133 45
5.9008 32.316 27.5328 143 140 107
29.7922 10.6016 26.4836 61 59 48
15.2126 29.1324 27.5663 143 147 31
22.4147 -23.1795 20.8287 169 168 141
23.059 24.2164 27.2358 65 65 96
8.15525 31.2563 26.7494 135 137 8
7.31507 31.7346 26.7329 136 136 15
4.1786 32.8145 26.5767 145 151 135
30.6282 10.7064 25.7283 87 102 145
6.94509 32.0276 26.3082 137 138 21
8.15557 31.3036 25.8997 138 137 9
7.41602 31.8418 25.9005 135 134 9
6.57499 32.3207 25.8834 139 138 23
30.5339 10.6893 24.8679 78 70 67
22.942 23.7187 25.8902 91 102 91
5.32817 32.5848 25.3688 137 133 13
29.6981 10.655 24.3564 67 71 48
8.1879 31.883 24.6978 137 133 9
5.32848 32.6322 24.5169 136 128 9
30.896 10.4975 23.6039 67 72 36
29.7933 10.7661 23.5308 62 72 39
4.55164 32.7105 23.5912 138 125 13
1.76984 33.5257 23.4243 139 121 27
21.8794 25.1345 23.8651 78 80 113
29.7938 10.8365 22.2653 92 99 138
1.8726 33.6332 22.5874 138 130 12
22.721 25.2197 23.1176 100 112 82
18.2275 27.3232 22.9508 129 145 91
7.18039 32.8683 22.5927 141 136 12
8.95856 31.995 22.2256 141 137 7
3.13021 33.4378 21.8275 136 133 7
9.62713 31.9528 21.4345 143 139 15
0.50908 33.9125 20.7606 137 111 21
18.3976 27.0309 21.2316 159 174 149
8.95903 32.0659 20.9534 139 137 9
7.65115 32.7533 20.9134 140 139 10
9.79626 31.6122 20.55 141 139 10
3.23284 33.5927 20.1387 140 133 10
21.2527 25.9106 20.5269 101 118 109
10.065 31.3077 20.108 141 140 8
9.76583 31.1517 19.6267 141 140 8
21.6151 25.6929 19.6888 75 86 136
1.15575 33.4284 18.6013 138 132 13
-1.20818 33.524 18.3613 138 133 13
8.39063 32.3335 18.7931 140 133 10
6.34117 33.5606 18.7483 137 133 13
-1.41542 33.4275 17.8919 140 132 14
21.5192 25.6792 18.8308 118 128 152
18.5928 27.292 18.7458 101 114 87
-2.5843 33.7565 17.379 141 133 14
9.0289 31.7834 17.9276 140 136 7
6.91291 33.4574 17.9389 131 135 45
-2.68828 33.7203 16.9283 137 132 12
32.0759 7.09509 16.444 46 49 31
-1.3112 33.5596 16.6221 137 133 14
22.2435 25.2207 17.5752 57 69 77
21.9777 25.5454 17.5931 58 71 90
11.7659 31.0274 17.2643 141 142 12
21.52 25.796 16.7332 111 125 160
11.7662 31.0745 16.4184 143 139 10
10.335 31.192 16.2757 141 139 9
22.244 25.2908 16.3172 113 113 139
11.2005 31.2464 15.9538 145 142 15
21.6165 25.9032 15.914 101 111 148
21.2544 26.1676 15.9122 123 138 172
10.3353 31.2392 15.4282 142 142 15
9.22984 32.0446 15.4224 140 140 12
22.2443 25.3375 15.4785 85 86 136
9.1302 32.0322 14.5539 141 140 10
8.05484 33.3459 14.6267 139 134 43
21.5207 25.9129 14.6357 130 146 157
0.7462 33.4748 13.3782 44 81 137
22.1488 25.3471 14.2003 119 130 132
21.1588 26.2008 14.214 135 151 162
11.3702 30.9767 13.7991 143 143 17
8.42412 33.1242 13.7807 136 136 16
22.1489 25.3705 13.7809 101 107 102
21.521 25.9596 13.7966 111 125 137
9.7989 32.0135 13.3456 141 139 8
21.0627 26.1871 13.3544 129 138 162
22.0531 25.3567 12.9216 86 95 58
21.0629 26.2105 12.9347 115 120 141
10.436 31.4642 12.4824 144 144 14
21.7874 25.7049 12.5201 69 94 89
9.69954 32.0246 12.0534 142 141 13
21.7877 25.7516 11.6811 134 135 150
29.9536 10.6318 9.48906 76 92 65
21.6919 25.738 10.8211 64 80 98
4.59098 33.9795 10.0282 54 81 139
7.15258 33.0705 9.76846 145 133 45
29.5914 10.9417 8.64124 97 108 97
21.2337 25.9888 9.95766 115 123 142
10.537 31.7363 8.69083 145 141 13
15.8967 28.6666 8.02053 150 155 115
10.5373 31.7835 7.84364 146 142 15
32.3476 7.35626 5.86393 42 45 56
10.7368 31.9735 6.61695 146 143 15
32.9625 6.29167 4.91987 38 36 92
32.2693 7.88359 4.65948 62 67 37
19.5909 27.1619 5.69943 111 138 141
7.29062 32.4338 4.96695 139 131 15
32.2538 7.40903 3.72892 41 48 55
11.2045 31.8593 4.94997 145 141 12
19.3005 27.0279 4.79189 153 170 179
15.3363 29.0011 4.5968 161 174 148
32.4275 7.06391 2.84282 40 37 83
7.29109 32.5049 3.6908 141 134 16
7.42429 33.0965 3.37513 139 134 34
7.66164 32.2827 2.84477 144 134 14
7.15507 33.4493 2.96835 143 133 62
10.7382 32.1858 2.80625 148 143 17
9.50344 32.4485 2.25812 146 140 27
11.0069 31.9051 1.94127 145 127 52
9.20373 32.2932 1.7646 142 119 61
7.35669 33.6392 1.73974 112 98 113
10.7086 31.7497 1.44831 131 109 107
9.67286 32.1314 0.94439 72 62 110
10.6788 31.2894 0.512519 59 52 104
3.25437 32.0226 85.3504 123 136 96
3.66533 31.8585 84.9164 125 138 95
7.11262 29.3778 84.3345 125 131 20
8.34678 28.8405 83.878 123 124 18
7.19465 29.4807 83.9181 124 131 22
5.62861 30.3089 83.9697 125 135 55
6.03644 30.1693 83.114 130 138 71
3.65513 31.9542 83.2278 129 141 75
1.75746 33.0511 83.296 120 126 27
7.18701 29.5524 82.6524 123 130 27
5.54778 30.8827 82.7377 133 143 114
6.03134 30.2171 82.2699 130 141 93
2.75143 32.879 82.4405 117 127 22
14.6018 30.2925 81.8967 125 131 19
7.09733 29.5213 81.8026 122 131 32
5.54268 30.9305 81.8939 135 149 100
4.64424 31.8071 81.9511 126 136 48
21.8175 24.6241 80.6961 76 76 46
7.00767 29.4903 80.9525 123 132 39
6.26689 29.9439 80.9804 130 142 87
14.9188 30.1001 80.6268 122 131 26
5.85142 30.1553 80.569 134 150 78
4.46633 31.722 80.6732 123 130 24
5.60312 30.5481 79.748 128 136 41
23.9188 22.7163 78.8945 125 129 26
6.75412 29.9309 79.2878 126 135 33
6.34149 30.1183 79.2983 129 137 39
6.33894 30.1422 78.8762 129 135 36
23.8312 22.7078 77.6344 126 132 25
5.88661 30.0114 74.195 124 134 33
2.71731 30.5078 74.1896 119 129 37
1.97252 30.9635 74.2162 121 133 51
30.0141 15.5856 72.9414 81 85 45
3.21576 30.4225 73.7643 121 133 50
2.12728 30.5622 73.7595 121 132 52
1.20914 30.8602 73.7703 121 135 58
7.12063 29.4968 73.3223 122 129 26
3.12487 30.3916 72.909 127 141 80
2.12216 30.6103 72.9112 123 136 66
1.11763 30.8293 72.9134 125 134 63
16.978 27.9721 72.5084 123 132 31
6.45415 30.1251 71.6674 130 141 67
2.11448 30.6824 71.6388 127 141 96
1.19633 30.9805 71.6482 126 142 92
16.8071 27.8862 71.2373 79 81 64
5.95369 30.2578 71.2455 130 144 88
4.61539 30.1602 71.2128 129 145 104
3.45759 30.8033 71.2474 133 145 109
2.28149 30.8883 70.8075 129 145 109
0.618118 31.6428 70.8422 126 135 91
16.802 27.9336 70.4005 92 104 39
20.2924 26.1351 69.8899 93 111 43
13.9514 29.8338 70.0919 125 134 24
1.44506 31.3134 69.9766 126 142 102
0.526466 31.612 69.9849 125 139 93
-9.59401 30.4544 69.6836 125 143 129
16.7152 27.9025 69.5551 96 98 49
10.1656 29.7214 69.5847 127 132 15
-1.57815 31.9978 69.5502 126 141 123
-8.92781 29.936 69.2185 122 141 150
13.9463 29.8813 69.2545 120 131 24
4.70051 30.9408 69.1581 131 142 78
4.45732 31.286 69.184 130 142 78
3.03004 31.1114 69.1388 128 139 84
2.44324 31.1421 69.1294 129 141 91
-3.4678 31.4516 69.0348 129 147 149
-9.62485 29.9104 68.7693 123 139 129
15.9778 28.3993 68.7431 88 96 45
10.0768 29.6905 68.7345 128 133 16
2.0253 31.3546 68.7139 126 137 75
1.10779 31.653 68.7213 126 138 77
0.188971 31.9518 68.7288 124 135 89
-1.7577 31.8881 68.6818 127 145 133
-4.48566 31.6969 68.6067 128 147 157
4.61014 30.9101 68.3037 124 138 47
-8.75597 30.1697 67.946 127 141 123
3.19383 31.3409 67.8866 127 139 66
1.27524 31.8586 67.8913 123 136 71
0.529926 32.3147 67.9165 123 136 92
-1.51942 31.5889 67.8045 127 141 127
-2.53054 31.8095 67.8022 129 147 152
-3.89497 31.7139 67.7631 128 146 157
-4.91084 31.9353 67.7608 125 142 154
15.727 28.8128 67.5135 125 132 21
4.26354 30.6428 67.4212 126 137 49
-5.59901 31.9117 67.3137 128 141 144
1.44257 32.0639 67.062 124 137 69
-2.53568 31.8578 66.9503 131 144 158
-3.81218 31.8414 66.9191 131 146 163
-4.31976 31.9521 66.9176 130 145 161
1.0244 32.2766 66.646 126 136 79
-1.43992 31.7403 66.5373 128 141 130
-4.23427 32.0555 66.5003 131 144 152
0.606121 32.4894 66.2298 126 136 90
-0.763847 31.812 66.1329 129 140 110
2.42278 31.3342 65.7394 126 137 64
1.10559 32.4032 65.8079 126 135 81
-0.505777 32.0727 65.7366 127 139 107
-1.86295 31.9778 65.694 128 144 140
-3.81991 31.9139 65.6394 130 147 142
-4.4829 32.452 65.6739 130 134 98
3.65168 30.2101 65.2374 127 138 45
1.84771 31.9714 65.3596 126 135 68
-3.73457 32.0173 65.2226 133 143 129
18.8012 26.7374 64.8697 109 112 19
3.40556 30.5805 64.8405 128 139 55
2.41766 31.3822 64.8919 124 139 62
1.18671 32.5297 64.9702 124 136 86
0.00938742 32.5931 64.9458 124 140 113
-1.69358 32.1839 64.8625 130 147 134
-4.48805 32.5003 64.8207 113 109 39
10.3784 29.6635 64.5097 125 133 15
7.92123 31.3646 64.6092 127 136 23
1.75651 31.9407 64.5024 123 136 64
-2.20135 32.3185 64.4345 134 140 116
-3.23274 31.955 64.3723 128 127 87
-5.33015 32.9046 64.4087 111 118 24
3.55831 30.2032 63.9559 129 138 46
2.32397 31.3754 63.6106 129 137 102
1.66523 31.91 63.6448 132 141 137
1.00649 32.4447 63.6791 132 141 147
0.001704 32.6652 63.6731 133 133 121
-3.67707 31.6072 63.4689 104 83 34
-4.1848 31.7179 63.4658 104 86 30
-1.61666 32.3592 63.1713 98 76 48
3.30696 30.6215 62.7115 126 137 48
2.31885 31.4235 62.7629 134 144 110
1.57397 31.8794 62.7869 139 139 119
0.585646 32.6815 62.8383 110 79 59
-1.86252 32.7302 62.7735 92 68 35
-4.60991 31.9563 62.6188 97 79 70
-3.94875 31.4418 62.1572 88 82 77
31.7862 12.1273 60.8413 116 120 24
3.21607 30.5906 61.8533 126 134 45
2.31373 31.4715 61.9152 131 142 98
1.48264 31.8487 61.9286 133 125 117
0.494086 32.651 61.98 82 35 24
-4.72437 31.3383 61.6945 111 117 143
15.6863 28.5909 61.1775 115 119 36
3.62609 30.4503 60.9989 126 132 24
0.888932 31.9281 61.0657 122 103 104
-1.80393 32.322 61.0237 100 55 57
-4.99473 31.1481 60.8071 128 131 159
15.3583 28.8787 60.7756 109 119 25
1.12971 31.6057 60.6135 139 139 117
0.140288 32.4086 60.665 88 36 22
-5.15278 31.6012 60.4183 132 133 129
0.624348 31.7397 60.1846 134 117 113
2.52992 30.6622 59.707 125 139 33
1.4544 31.3861 59.7475 124 138 98
0.535225 31.6849 59.749 137 124 115
-0.454858 32.4884 59.8005 90 30 28
-4.05236 31.5076 59.5838 109 86 106
-5.09093 31.1413 59.5126 123 117 140
-3.45905 31.5006 59.1727 101 51 65
3.02643 30.6008 58.8635 122 131 18
0.443493 31.6541 58.8885 142 133 119
-5.51719 31.3801 58.6628 137 131 126
-1.55779 32.703 58.5047 105 34 45
-3.55214 31.4696 58.3077 102 46 53
-4.06009 31.5802 58.3023 105 70 89
0.262526 31.5685 57.5913 132 138 113
-1.9991 32.357 57.5972 102 29 37
-3.64524 31.4387 57.4422 101 41 42
-4.50624 31.2314 57.3903 98 59 68
-5.54679 30.8641 57.3151 108 92 101
-5.96849 31.0546 57.3209 131 129 119
1.0044 31.1597 56.7186 122 128 36
-1.74237 32.6418 56.7808 99 25 37
-5.04191 30.802 56.4645 95 49 66
-6.24022 30.8638 56.4285 125 121 124
-6.66247 31.0544 56.4341 135 133 139
-4.09345 31.1139 56.102 101 33 38
-6.8432 30.9191 55.9814 133 132 146
-5.73458 30.8017 55.5776 101 68 93
-7.35769 31.0543 55.5457 121 115 121
0.736998 30.9946 55.4082 121 130 16
-7.44958 30.9987 55.1043 122 126 140
-7.78582 31.2938 54.6923 117 129 151
-6.43115 30.8255 54.2601 120 96 131
-1.44532 31.9341 54.1455 117 92 80
-6.85615 31.0406 53.836 129 119 157
0.222891 31.201 53.7002 119 127 40
-2.79053 32.448 53.7221 103 30 36
-1.95601 32.0928 53.2864 98 57 43
0.461563 30.9017 52.8198 124 128 17
-0.199666 31.4384 52.8542 120 125 53
-1.54031 31.9274 52.8558 128 118 97
-2.62054 32.6541 52.8949 99 30 38
-3.39256 32.5523 52.4232 106 32 41
-4.23124 32.9322 52.4325 111 39 46
0.28282 30.7915 51.9435 121 128 12
-0.378698 31.3283 51.9779 118 125 32
-1.80743 31.7383 51.966 137 129 110
-3.99028 32.6083 51.9759 117 40 48
-4.32185 32.8774 51.9932 117 36 43
-2.22855 31.9522 51.5443 120 91 94
-2.55975 32.221 51.5616 92 46 55
19.3684 26.4127 50.9644 147 158 162
0.36194 30.9431 50.6796 123 128 16
-0.560442 31.2423 50.675 120 125 18
-1.90249 31.7317 50.6747 140 138 107
-2.98382 32.459 50.7134 96 36 35
-3.40285 32.6489 50.7176 105 35 44
-2.32384 31.9455 50.2526 133 114 111
0.356802 30.9913 49.8285 124 129 11
-0.652651 31.2114 49.8102 121 127 15
-1.90764 31.78 49.8223 139 136 103
-2.65769 32.2385 49.8436 105 79 81
-3.82727 32.8872 49.8689 92 64 78
19.1983 26.326 49.6825 145 160 160
-0.483668 31.418 48.9851 123 129 17
-2.66284 32.2868 48.991 109 110 107
-1.67158 31.5044 48.513 117 125 58
-2.09033 31.6941 48.5167 130 138 101
-3.50356 32.6907 48.5722 128 130 126
0.186939 31.5384 47.7452 125 129 16
-2.75817 32.2802 47.6984 132 122 91
-3.50871 32.739 47.7192 110 94 69
-4.34761 33.1192 47.7263 88 83 29
-1.6793 31.5768 47.2341 122 126 30
-2.76332 32.3285 46.8456 91 92 21
-3.42602 32.8663 46.8801 92 99 15
-4.33209 33.7518 46.9456 119 125 20
8.12274 30.943 46.7683 127 128 10
29.0573 16.3173 45.5476 139 153 165
29.5373 16.2627 44.7184 138 147 152
29.453 16.2289 43.8641 111 110 109
6.37577 31.7347 44.657 127 137 47
9.35101 31.1037 44.3038 131 127 11
9.34847 31.1276 43.8828 131 127 9
6.45289 31.8848 43.405 129 142 59
22.8186 23.8795 42.8092 144 157 169
8.50917 30.9945 42.5488 129 126 7
6.44779 31.9326 42.5608 131 142 67
5.63366 32.8875 42.6413 137 146 80
27.237 17.742 40.9802 34 36 39
8.33561 30.8853 41.6759 127 128 8
6.4427 31.9805 41.7167 133 145 81
8.57409 30.5885 40.8003 132 129 8
5.77006 31.9811 40.8294 142 153 113
8.4847 30.5576 39.9412 131 130 7
7.08849 31.5437 39.9943 128 138 37
20.9251 26.3128 39.6536 149 160 184
4.91092 31.2673 39.4084 137 152 100
29.9926 11.0817 37.7001 136 146 163
4.40846 31.4009 38.9711 139 154 93
3.66448 31.8565 38.9898 141 157 115
8.14915 30.8955 38.6924 129 127 5
7.99002 31.3186 38.7404 128 129 8
1.5391 31.0747 38.3344 141 153 125
5.65811 31.4657 38.1995 130 139 35
1.1195 31.2879 37.9105 142 152 117
0.371664 31.7454 37.9291 138 150 119
22.7112 23.5023 37.6892 142 160 172
21.2421 25.5638 37.8844 147 161 182
4.05851 31.1577 37.6372 132 140 43
3.81472 31.5038 37.6701 132 140 41
8.55371 30.7797 37.4252 131 132 8
-0.328819 31.1605 36.95 137 151 103
3.22287 31.5829 36.7916 133 141 41
0.086724 30.9951 36.5227 130 140 52
23.5119 23.7867 36.51 87 99 98
22.1327 24.1818 36.4814 86 97 93
1.0934 30.7992 36.127 131 141 40
-0.109311 30.2979 35.5551 129 141 37
16.8329 27.8006 35.8171 140 145 18
0.165961 31.1468 35.2608 132 141 40
23.0935 24.0899 34.4173 74 72 49
9.94694 31.1213 34.5856 138 137 11
9.45519 31.8565 33.8106 137 132 12
9.04166 32.0676 33.3901 133 131 10
10.1042 31.3733 32.9348 139 139 15
9.36625 31.826 32.9521 135 135 11
8.6164 31.7244 32.464 135 132 9
22.2608 25.2067 31.5707 49 72 91
10.1803 31.523 31.6892 141 141 13
9.44249 31.9757 31.7062 139 134 7
8.52719 31.6939 31.6041 138 133 9
4.86235 31.7231 31.3642 133 141 65
3.86204 31.9427 31.3296 135 139 44
4.77441 31.6684 30.9235 142 151 98
9.2612 31.2883 30.7442 142 137 10
5.10093 31.4253 30.4829 148 138 112
3.77122 31.912 30.4647 134 140 64
26.5245 -19.5007 23.9743 161 152 116
22.5785 25.0139 30.2981 75 65 37
9.00401 31.1009 29.849 140 135 11
5.09582 31.4733 29.636 133 91 91
4.18111 31.7715 29.6175 144 105 127
1.9321 32.5581 29.58 134 138 68
22.0063 25.0877 29.4256 72 90 84
5.00539 31.4426 28.7713 134 102 88
4.17599 31.8195 28.77 143 117 115
3.26005 32.1181 28.7509 138 100 105
1.51086 32.7952 28.7305 141 149 130
22.0818 25.2143 28.6055 108 122 129
0.919045 32.8512 28.2694 146 151 148
29.7665 11.5391 26.6582 59 55 66
4.58565 31.679 27.9233 127 106 98
3.1691 32.0875 27.8848 145 124 125
1.41939 32.7647 27.8635 151 143 127
5.32687 31.2475 27.4834 151 145 107
0.913916 32.8993 27.4198 148 132 86
29.6815 11.5039 25.7928 76 89 65
0.321337 32.9554 26.9576 135 107 110
-2.57208 32.6101 26.6971 145 146 146
18.8991 26.8702 26.9402 137 152 146
6.65998 31.3912 26.7477 136 139 41
4.4925 31.6723 26.6341 149 159 115
1.82793 32.6478 26.5908 142 136 151
5.98887 31.3673 26.2689 139 142 40
3.9894 31.8062 26.1908 148 155 116
29.9931 11.9081 24.5969 67 63 102
6.15636 31.5485 25.8825 138 140 15
4.48738 31.7203 25.7866 149 150 94
2.32499 32.5855 25.7616 134 105 81
1.23375 32.7277 25.7035 146 123 126
0.226928 32.949 25.6638 153 143 161
5.39934 31.4462 25.3841 134 136 18
27.4208 -18.1623 18.8682 162 158 139
5.39678 31.4701 24.9606 137 137 11
4.48226 31.7684 24.939 136 131 8
2.56352 32.2873 24.8771 141 117 45
1.1422 32.6972 24.8352 132 90 65
0.0482689 32.8398 24.7761 135 102 78
-23.3855 22.2581 21.3846 152 145 125
-24.3646 22.5645 21.3594 157 149 113
7.64283 31.2921 24.674 141 134 11
6.1487 31.6204 24.6134 141 137 16
-23.4842 22.1986 20.92 149 143 116
-24.4637 22.505 20.8946 157 150 116
22.2207 25.029 24.364 76 74 119
1.05058 32.6666 23.9666 128 98 20
-0.548297 32.92 23.8858 137 112 50
7.30945 31.6064 23.8462 136 137 6
5.89995 32.0137 23.8034 139 136 10
2.22603 32.627 23.6211 132 106 20
-1.31753 32.8184 23.3821 133 113 28
-24.662 22.3858 19.9642 160 148 110
-23.6846 22.1046 19.5459 142 125 62
-25.0102 22.6915 19.5375 165 153 120
4.56761 32.5483 22.9327 140 129 9
2.2209 32.6751 22.7722 133 120 9
1.04288 32.7389 22.6917 143 133 21
-0.0514205 32.8815 22.6301 139 118 23
-0.973855 33.182 22.6069 131 108 18
22.4524 25.3616 22.745 82 94 79
14.7909 28.9677 22.7267 142 146 21
5.0646 32.4622 22.5306 139 131 10
-25.8451 22.5988 18.5609 168 155 120
2.21578 32.7232 21.9234 140 127 11
1.03775 32.787 21.8417 140 117 17
-0.387169 33.198 21.7964 138 121 24
-2.58385 33.485 21.671 140 132 30
-24.287 22.8253 18.2697 151 141 91
8.0377 31.2718 21.7191 140 136 5
4.06001 32.7304 21.6413 137 128 4
0.94862 32.7324 21.3973 135 109 17
-1.57419 33.2867 21.2883 133 115 11
-5.94416 32.7686 20.8618 145 128 54
-22.2572 23.4722 18.085 143 126 55
-25.5599 22.9035 17.7342 163 156 115
14.7007 28.9605 21.4465 147 143 22
-0.0616947 32.9779 20.9283 131 108 17
-2.67666 33.4544 20.7985 140 123 12
7.46078 31.9308 20.928 140 136 12
6.39157 32.6515 20.9597 140 137 12
1.70577 32.9059 20.6281 139 119 16
-1.40478 33.4924 20.4757 129 110 6
-4.57518 32.9113 20.1292 139 118 23
-6.90563 32.5315 19.8822 139 115 27
-25.9972 22.0194 16.2088 153 143 106
2.0306 32.6862 19.7618 134 129 4
1.09566 32.4031 19.6401 135 130 5
0.347996 32.8607 19.6546 132 124 5
-1.32268 33.6194 19.6439 133 121 12
-2.00294 33.5732 19.5816 137 120 19
-3.01581 33.7959 19.5363 136 101 28
-4.05092 33.4342 19.3938 136 96 30
-5.26682 32.9128 19.2105 139 98 33
-27.0034 19.4025 15.2504 142 129 62
30.8139 9.49723 17.8641 112 106 106
6.55346 32.8796 19.7321 142 138 12
0.760063 32.7195 18.8068 137 128 5
-2.00809 33.6215 18.7293 139 121 16
-4.76226 32.8498 18.3774 130 89 18
-5.44924 32.8027 18.3135 129 86 18
-6.4043 32.5172 18.1885 129 89 17
-26.3809 20.5937 14.5936 148 138 75
6.87643 32.6612 18.8707 139 140 16
5.80736 33.382 18.902 138 132 9
-4.76485 32.8741 17.9493 130 108 11
22.3496 24.9385 18.4424 97 97 101
-26.7335 20.9262 13.7179 137 118 82
-25.872 22.851 14.1086 120 104 84
4.97578 33.8064 18.0515 137 132 15
-5.36835 32.9548 17.0489 136 134 15
29.0805 10.2704 15.7067 94 100 129
22.1832 24.8273 17.5641 55 64 65
6.45598 32.9211 17.6011 121 130 76
5.47158 33.72 17.6523 120 126 36
-4.54935 32.0098 16.5273 135 129 11
-5.54829 32.8205 16.5792 137 137 18
-23.3769 22.1769 13.3063 137 108 50
-26.8365 20.8913 12.8017 132 123 89
-25.919 22.2811 13.1109 137 136 108
12.7875 29.7095 17.1692 142 143 18
29.1557 10.4022 14.8777 77 76 110
12.4578 29.9989 16.7652 141 141 17
5.87949 33.5796 16.8111 66 94 117
-5.22048 32.5988 15.7049 135 132 14
-25.6363 22.6116 11.8419 161 156 113
6.61525 33.173 15.9531 111 125 122
5.54633 33.8937 15.9838 52 81 141
-5.22565 32.6473 14.8479 132 128 8
-24.6008 21.7942 11.3426 136 128 64
-25.0435 21.9901 11.3378 140 133 78
29.5583 10.2901 13.6071 114 124 98
16.8717 27.9399 15.5205 142 146 24
-4.80671 32.4808 14.4233 129 125 7
-24.7562 22.2702 10.9609 143 135 74
-25.448 22.8316 10.9968 162 157 111
0.160191 33.5753 14.6095 89 107 108
-4.59035 33.8364 14.2417 131 124 11
29.9633 10.154 12.7617 85 90 85
15.2311 28.7326 14.6653 153 159 147
5.6969 33.5431 14.6586 53 86 143
-4.36975 32.9259 13.6732 126 125 10
-4.94639 33.5447 13.7291 130 124 9
-25.9795 21.8366 9.88108 147 143 96
11.6149 29.936 14.1306 145 146 34
-25.2332 20.7617 9.31122 142 133 48
29.7981 10.0348 11.8692 76 74 53
15.3084 28.8589 13.8452 156 173 183
11.4453 29.8024 13.667 144 145 32
7.74558 32.0712 13.7325 138 132 12
6.02001 33.3246 13.7968 70 90 135
2.26541 33.8636 13.5582 44 81 143
-26.8181 21.7425 8.8903 159 155 109
-3.5841 33.71 12.5835 90 112 107
-26.016 20.1274 8.23043 137 124 53
12.4292 29.6334 12.874 156 168 107
11.1193 30.6965 12.9422 142 144 16
7.49687 32.4636 12.9262 133 136 18
-26.1714 20.606 7.84857 134 126 62
-26.5738 21.4262 7.95552 149 146 97
29.38 10.2913 10.5898 116 113 118
-26.2976 22.8652 7.78123 156 153 115
15.7897 28.8465 12.1891 157 170 141
26.0675 -18.7693 4.30968 133 127 110
17.4212 28.1256 11.7864 140 139 44
15.2957 28.978 11.7432 155 165 138
-4.67405 32.2702 10.5063 46 82 141
-26.2769 20.5964 6.48364 101 115 129
-27.167 20.9893 6.47188 131 136 121
22.6323 25.0779 11.3004 117 108 76
4.66684 33.3763 11.124 48 85 146
-5.76459 33.0261 10.1075 48 81 141
-6.00885 33.3757 10.147 48 82 139
26.4856 -18.2474 3.54208 135 127 115
17.4161 28.1732 10.9467 142 141 48
12.5054 30.4114 10.892 149 154 56
-5.2783 32.3507 9.59964 48 84 147
-26.0322 20.2794 5.5472 69 96 130
-27.2154 20.4149 5.46237 91 107 113
15.6972 28.8631 10.4866 161 173 139
-26.6997 22.6519 5.45657 148 150 120
4.40299 33.2135 9.78889 50 70 128
-4.28365 31.5878 8.68987 47 84 150
-26.5801 20.4407 4.62208 81 100 122
-27.3732 20.9194 4.63385 123 132 122
29.6923 10.1918 7.59783 83 83 82
17.3266 28.1658 9.66531 144 141 47
5.98314 32.9849 9.46833 99 90 90
-4.68699 32.3916 8.36333 48 83 147
-26.3585 22.4211 4.54643 139 138 114
15.363 29.1996 9.24267 159 170 162
-2.30133 32.2885 8.13654 46 82 146
-3.07319 32.1615 8.04105 47 82 148
22.2108 25.4055 8.78069 95 98 125
21.0715 26.0404 8.78761 108 123 127
17.8933 28.1849 8.87436 147 154 65
12.4926 30.5306 8.78719 146 151 51
5.89307 32.9546 8.6007 101 90 94
-4.00559 32.4876 7.5797 48 80 147
-25.6009 20.2098 3.3178 65 91 131
28.7742 11.1516 6.39722 105 118 109
-26.3115 21.9603 3.11618 113 118 108
21.0665 26.088 7.94883 106 103 150
15.3554 29.2711 7.98173 157 172 148
5.80292 32.9242 7.73269 101 91 99
3.81775 33.9455 7.72863 40 38 99
-25.6063 20.2604 2.42361 70 80 110
22.2838 25.5559 7.54529 105 117 120
11.9054 30.6563 7.05309 147 147 26
4.31251 33.8829 6.91011 39 38 98
28.2895 10.1429 4.44837 88 107 101
15.3477 29.3425 6.72078 160 171 149
15.2602 29.3115 5.8575 162 170 176
4.37743 33.4533 5.5551 42 42 102
0.241531 33.1211 4.65726 40 39 100
-0.524375 32.9957 4.55828 39 39 99
4.36976 33.5253 4.28496 43 39 101
0.149487 33.0906 3.78238 39 38 105
10.6594 31.988 3.77446 144 143 11
4.36465 33.5733 3.4382 44 41 106
9.82417 31.8322 2.80897 144 143 14
4.44239 33.7234 2.19169 43 42 105
4.52524 33.8255 1.79212 44 44 106
12.283 30.7794 1.58361 131 109 81
11.8673 31.0143 0.734514 58 52 106
6.92559 33.2674 0.652647 43 43 96
27.179 -20.1097 84.7864 89 91 38
-15.1442 23.8468 85.3737 121 134 89
-16.4242 23.5757 85.3605 118 137 98
6.09598 30.6484 84.9128 123 135 42
-14.4919 24.7705 84.5692 114 125 46
16.6213 27.6652 82.9818 78 81 51
15.2541 27.9109 82.5835 82 96 32
8.31181 31.7519 82.8858 127 136 49
2.06885 31.6344 82.8886 125 134 32
14.7521 27.9479 82.1673 102 108 38
3.71659 31.8051 82.477 130 138 54
29.141 17.1993 80.9063 86 90 40
16.5452 27.6486 81.7224 98 95 65
14.0554 27.7061 81.7295 103 108 41
-17.2028 22.8394 81.3902 109 118 22
-17.5044 22.4752 80.9262 109 118 21
16.5372 27.6995 80.8873 75 74 52
-18.4247 22.7165 80.509 110 122 36
28.202 18.158 79.7153 104 105 40
14.6715 27.9569 80.4879 94 102 30
6.99559 30.7854 80.7108 139 152 94
-19.1867 22.4591 80.0521 109 127 44
29.0013 17.1102 79.2102 98 96 62
26.1059 21.0976 79.5265 93 102 39
-18.8068 22.2801 79.6009 109 126 31
-19.8752 22.2992 79.6019 115 136 61
-18.107 21.101 79.0696 111 119 18
-20.565 22.139 79.151 120 141 86
26.0979 21.1486 78.6892 70 76 29
-18.4957 21.3333 78.6502 112 121 23
-19.7997 21.754 78.6827 111 128 39
-20.4901 21.5931 78.2305 116 134 58
-18.4292 21.4846 77.7873 112 124 30
-21.5579 20.2647 77.2406 118 132 63
-22.1724 20.1742 77.2317 119 136 87
-23.4804 19.8938 77.2052 125 142 133
-22.7156 20.2096 76.793 126 142 113
-21.6422 20.219 76.3569 120 134 62
4.88496 30.4917 73.9305 128 138 68
2.31793 29.7977 73.8517 124 132 40
-12.8501 27.7557 73.5727 115 126 66
-13.0718 27.4955 73.1161 117 128 71
5.31499 30.4373 73.0833 133 147 99
-12.6244 27.4145 72.6801 121 134 84
5.74884 30.3574 72.6565 136 148 101
4.23281 30.3956 72.6489 133 145 98
2.67817 29.6756 72.5707 133 143 85
0.307337 30.6845 72.6467 128 137 66
15.5659 27.7137 71.6429 96 101 66
14.5875 28.4919 71.7081 107 119 36
10.3307 30.3867 71.8516 131 131 20
9.52618 30.6894 71.8736 124 127 14
0.367614 30.829 71.8121 129 140 75
2.80169 29.9393 71.3243 134 149 105
-11.6838 28.0793 71.0244 126 141 141
14.3398 28.9257 70.9064 107 116 29
1.24076 30.6683 70.956 134 146 107
-11.5438 28.2957 70.6154 128 144 149
10.3843 30.5556 70.6061 134 133 17
0.864456 30.8931 70.55 133 147 102
-9.26863 29.2333 70.296 128 147 158
2.72177 29.9231 70.0498 136 146 108
-9.27272 29.2593 69.8693 129 148 157
12.3529 29.804 69.7111 132 135 20
10.3763 30.6066 69.7695 131 133 15
1.73699 30.7324 69.6948 130 145 110
-10.4597 29.1209 69.4145 129 146 131
14.6927 28.8302 69.2192 82 89 39
6.48795 30.92 69.339 133 148 77
0.852346 30.9702 69.285 131 146 94
-20.2093 22.6951 68.2506 112 64 68
12.714 29.6575 68.8593 131 136 20
1.66092 30.6907 68.8418 130 145 83
-2.10194 31.9257 68.9234 133 151 152
-10.1815 29.5514 68.6005 127 135 91
5.84235 30.7987 68.4755 131 137 44
0.776037 30.9285 68.4315 132 141 78
-20.3763 23.2477 67.4273 109 73 89
3.54729 30.5045 67.9968 129 141 62
1.5167 30.5559 67.9784 132 138 71
-9.76104 30.1697 67.8085 112 116 47
-19.8458 23.2642 66.9971 110 67 72
14.6767 28.9321 67.5476 119 126 17
5.12861 30.5846 67.6003 129 136 45
0.93563 30.5012 67.5415 131 137 72
-0.186199 31.1249 67.1666 128 142 88
-9.62656 30.4101 66.9768 113 115 26
0.554954 30.752 66.7132 130 143 74
-8.23932 30.8801 66.614 116 116 41
-7.37342 31.3615 66.2472 121 122 40
-19.0286 23.7508 65.3066 110 65 56
5.0454 30.5941 65.9082 131 138 43
0.379459 31.2819 65.9166 132 143 84
-2.9177 31.7473 65.9204 138 154 169
-5.97185 31.1604 65.8179 133 140 107
-7.16601 31.6681 65.8546 115 116 23
-8.60615 30.488 65.2838 116 120 19
-9.1954 30.4069 65.2671 115 120 19
-19.8043 24.2142 64.4698 104 83 95
-6.63579 31.038 64.9416 112 115 23
3.0422 31.4785 64.7033 131 143 64
-4.16269 31.5718 64.6073 129 131 83
-7.31915 31.5586 64.5595 116 121 20
-8.40144 30.8219 64.4653 116 117 31
-5.33343 31.4375 64.1492 112 112 21
-8.42662 31.5177 64.1111 110 112 56
5.59746 30.8021 63.8233 128 136 25
-5.99216 31.2897 63.6965 116 117 25
-6.88204 31.5034 63.7057 117 120 22
-7.98472 31.4365 63.6814 115 115 52
3.19886 31.0784 63.3923 132 143 67
-2.36556 32.007 62.9796 97 73 32
-5.85999 31.5284 62.8706 98 82 28
-6.74944 31.7421 62.8795 113 109 25
-5.56373 31.2863 61.995 102 91 88
-3.13917 31.0592 61.5849 96 75 80
-6.38704 31.6193 61.5908 89 66 21
-1.73719 32.3079 60.8987 114 57 38
-3.2167 31.0173 60.7262 105 67 64
-5.48158 30.7889 60.6593 142 137 144
-6.46543 31.5775 60.7304 89 61 22
-1.51029 31.9742 60.0151 112 40 29
-1.58317 31.907 59.5808 111 38 31
-2.09802 31.9462 59.15 111 42 33
-5.12302 30.6918 58.9452 127 128 160
-1.79801 31.6793 58.6995 111 30 36
-2.52075 31.4389 58.231 114 38 35
-6.09148 30.8635 58.0904 135 141 142
-1.87506 31.6377 57.8419 103 27 30
-2.39053 31.6768 57.4099 108 31 32
-6.31059 30.6338 57.2028 134 144 159
-3.11438 31.4363 56.9396 111 28 43
0.693949 30.9836 56.5429 128 137 75
-1.00326 31.502 56.5677 101 66 72
-2.02528 31.5286 56.5484 96 24 32
-1.45324 31.66 55.7255 95 42 38
-2.54505 31.5935 55.6925 106 27 38
-3.63927 31.527 55.6595 109 30 37
-8.41606 31.4602 55.5424 76 65 79
-4.50521 31.0988 55.1605 97 35 56
-2.62237 31.5519 54.8333 102 27 35
-3.71692 31.4853 54.7993 106 26 34
-8.94181 31.5254 54.681 139 130 126
-4.30402 31.431 54.3518 100 30 57
-2.11862 31.5901 53.9978 90 38 46
-5.61675 31.1091 53.8527 105 79 111
-7.09381 31.2426 53.8333 136 135 130
-3.4511 31.9358 53.5819 108 26 38
-2.50418 31.8672 52.7446 95 31 33
-6.66027 31.2133 52.5557 92 35 42
-7.15105 32.6563 52.7258 91 21 35
-5.82537 32.3868 51.8714 97 18 29
-6.30129 33.211 51.1109 88 31 52
-6.53893 33.6226 50.7311 74 56 99
-5.42173 33.0486 50.2605 81 51 68
30.2647 15.1528 48.4862 117 136 142
-2.36656 31.5682 49.7253 133 123 113
-6.03326 33.6599 49.897 107 115 121
-5.30634 33.3891 47.7497 84 83 9
-2.12649 32.1728 45.9762 124 130 19
-3.55043 33.0646 46.0542 122 127 16
-1.99241 32.3847 45.5835 127 133 18
-3.78888 33.4755 45.6773 127 132 20
20.5911 26.0337 44.1607 146 157 180
18.2457 27.0334 44.2236 137 142 63
8.11422 32.2917 42.9382 128 135 23
5.25426 31.9485 41.9414 139 151 95
-28.1091 16.6893 38.5355 141 145 134
-28.9704 17.7229 38.6551 143 140 126
9.77935 31.8536 41.6664 136 135 12
-27.9605 16.9459 37.6826 154 155 131
20.17 25.7277 39.877 146 162 175
4.96969 31.6805 40.1949 141 155 120
16.9482 26.9634 39.5173 135 138 20
3.88572 31.6401 39.7238 142 154 122
2.53196 31.2019 39.6077 140 151 114
30.4749 -12.3092 32.8342 108 102 47
1.01988 30.6782 37.7659 143 153 129
0.135664 30.8911 37.7637 141 154 126
30.8572 -12.4643 31.9325 125 112 62
5.6214 31.3442 37.6223 140 143 45
2.74862 30.9449 37.448 137 143 66
5.2418 31.5942 36.7963 136 143 46
2.60469 30.8099 36.5693 135 143 44
4.7318 31.6332 36.3569 137 142 49
3.44396 31.3139 35.8296 138 142 47
-29.9861 14.7272 31.8784 155 155 120
4.41936 31.976 35.5478 138 146 49
8.58357 32.0789 35.3133 138 136 15
-30.7154 13.8861 30.363 163 157 125
29.6882 9.91242 31.8539 88 87 92
15.3497 27.9951 34.1081 136 139 21
8.50936 32.0376 34.4573 136 134 14
-29.9208 15.6596 30.2262 166 160 133
13.2326 28.6391 33.6961 139 142 14
-30.6442 14.0434 29.4878 162 156 128
15.2122 27.8597 33.2334 141 145 38
14.7767 27.9646 33.2313 140 143 28
8.67314 31.6135 33.55 144 137 12
-29.8501 15.8159 29.3541 162 159 136
-29.6099 16.8398 29.5282 163 159 136
13.0287 28.4106 32.8026 140 145 23
15.2041 27.9108 32.3937 143 148 50
-27.732 17.1762 28.7669 159 160 124
29.6688 9.24623 29.5892 73 80 59
13.1513 28.6483 31.998 140 143 19
15.1961 27.962 31.554 144 146 50
-27.5837 17.4325 27.9188 162 158 126
30.0326 9.91891 28.4209 70 78 103
-28.6118 17.6027 27.0035 174 168 143
15.0544 27.8521 30.2578 144 149 41
13.942 28.4472 30.3047 142 141 21
-27.9098 17.8242 26.624 172 168 139
13.1757 28.1112 29.7894 144 141 22
3.45509 31.7665 29.9433 148 134 92
-28.463 17.8589 26.156 175 175 143
15.6114 27.9849 29.4578 149 153 65
-27.9183 17.8783 25.7364 175 176 147
13.1023 28.0691 28.9295 142 141 22
-4.63666 31.4592 28.6581 134 141 34
-5.38715 31.8607 28.6898 135 136 35
-6.58327 32.3694 28.7183 134 133 41
-28.3929 18.014 25.2886 175 178 149
15.4739 27.8494 28.5809 146 150 51
14.9086 27.7677 28.5402 145 149 40
3.30759 31.6578 28.6407 148 106 100
-3.6809 31.3647 28.2586 138 141 43
-27.9268 17.9324 24.8489 174 176 146
-2.96213 31.6579 27.9136 138 137 76
-4.71477 31.4173 27.7889 139 136 40
-5.0901 31.6181 27.8047 141 130 39
-28.2443 18.2699 24.4424 181 178 137
15.4011 27.8073 27.7221 150 153 84
13.1556 28.2394 27.6866 143 143 27
3.80717 31.6959 27.8193 159 141 164
-1.22046 31.9234 27.6144 152 135 151
-3.47998 31.6972 27.4667 143 149 88
22.2069 25.2124 27.1888 54 62 88
14.8316 27.7511 27.2606 144 147 56
-5.02818 31.7635 26.9738 135 115 74
-27.156 17.5944 23.4846 156 147 123
-27.9395 18.0135 23.5176 166 155 123
15.2635 27.6717 26.8438 148 153 72
-1.80974 31.8952 26.7253 133 117 101
-4.07217 31.6689 26.5754 155 164 154
-7.02688 31.9373 26.4759 126 121 42
-8.27488 31.6829 26.371 135 140 42
-10.4767 30.8755 26.1249 138 135 40
-27.9444 17.3256 22.9517 155 145 117
-28.257 18.351 23.1115 165 157 118
30.9982 9.37589 24.0617 80 77 80
14.8236 27.8023 26.42 148 152 47
13.5148 28.1176 26.4092 145 142 25
-2.32638 31.9346 26.2785 141 129 90
-3.42255 31.8683 26.2128 154 156 146
-6.06802 31.8424 26.0772 140 125 73
-8.42105 31.521 25.9054 138 140 74
30.7418 9.80175 23.6907 63 61 60
29.7973 11.496 23.9353 55 61 33
-1.23667 32.0266 25.9206 146 128 109
-2.84349 31.974 25.8313 141 115 91
-4.73512 31.5469 25.6632 159 154 167
-5.62624 31.7611 25.6556 150 138 107
-6.87099 31.5067 25.5495 133 115 62
-7.38857 31.5201 25.526 132 118 84
-9.01534 31.4664 25.4355 148 145 103
-10.0356 30.82 25.2732 141 128 78
-28.5826 16.5687 21.892 154 149 123
-28.2664 17.6907 22.1011 163 154 125
-28.2655 18.405 22.2241 166 156 124
-27.8728 19.6199 22.453 168 158 124
14.8155 27.8535 25.5794 147 148 45
13.572 28.2623 25.5875 146 142 25
-3.5003 31.8265 25.3443 137 108 103
-10.7044 30.6703 24.7816 129 116 84
-1.31379 31.9849 25.054 160 140 131
-4.81331 31.505 24.7931 154 142 133
-5.70466 31.7193 24.7851 137 126 75
-6.94976 31.4648 24.6777 138 119 85
-8.64668 31.3169 24.5659 153 154 134
-9.09478 31.4244 24.5618 154 153 130
-11.0864 30.8985 24.3694 133 127 127
-28.4323 17.5425 21.1696 163 155 125
29.7225 11.4755 22.6361 60 78 95
13.062 28.3254 24.723 146 142 26
-0.294894 31.9836 24.678 139 117 91
-1.31784 32.0108 24.6305 156 134 113
-2.4119 31.9446 24.563 134 94 70
-3.5781 31.7848 24.4755 127 89 76
-7.02456 31.3967 24.2316 136 113 69
-10.6408 30.8169 23.9456 133 122 105
-28.2812 16.3382 20.5184 144 139 120
-2.34667 32.0637 24.1589 139 112 80
-5.71281 31.7711 23.9342 146 119 106
-7.61741 31.3421 23.761 124 108 83
-8.79731 31.1805 23.6719 154 153 132
-11.0946 30.9507 23.5133 143 138 131
-28.9102 18.4203 20.4009 166 154 115
29.5892 11.3306 21.7422 82 76 88
-2.86379 32.1032 23.7107 146 122 85
-4.03084 31.9435 23.6221 134 106 61
-6.30375 31.7168 23.4642 142 122 112
-28.6039 16.7043 19.6665 151 148 123
13.0499 28.4023 23.461 147 144 25
6.8034 31.8721 23.747 144 138 18
-3.31179 32.236 23.2823 152 129 81
-7.69647 31.3 22.8877 141 130 139
-10.7249 30.8007 22.6411 148 154 141
-11.1748 30.9084 22.6366 153 150 120
-1.63888 32.4072 22.9722 131 104 22
-2.15108 32.4209 22.9477 131 108 26
-4.69363 31.8218 22.7075 133 110 25
-5.13894 31.929 22.703 130 107 31
-8.29028 31.2453 22.4158 149 137 88
-28.9281 16.3521 18.6876 159 155 124
-29.3171 17.9966 18.9587 172 161 122
6.7286 31.8308 22.8859 142 140 17
-3.18086 32.4743 22.4745 135 127 24
-6.2455 31.8884 22.2075 140 121 22
-8.0853 31.5795 21.6239 135 109 25
-9.55179 31.0413 21.4493 134 108 28
-11.3311 30.7976 21.3106 140 127 27
-30.6004 14.9843 17.4534 163 154 125
-1.582 32.5776 21.7223 134 112 30
-2.60658 32.6052 21.6721 134 119 32
