ply
format ascii 1.0
element vertex 1356
property float x
property float y
property float z
property uchar red
property uchar green
property uchar blue
end_header
54.3539 -23.838 53.3305 69 73 79
57.5541 -23.8187 53.2941 66 68 73
61.1536 -23.9699 53.2834 64 64 70
61.5927 -24.0191 53.2875 63 63 69
66.7123 -22.567 52.9804 76 79 83
68.8448 -21.7875 52.8218 91 110 124
69.7279 -21.8865 52.83 117 139 160
-68.1581 -15.2222 52.6494 72 78 86
-25.7216 -22.9252 53.5626 69 61 75
-24.5942 -23.9054 53.7233 65 34 48
-23.4461 -24.7637 53.8624 69 31 48
-21.3663 -25.3609 53.9458 52 26 38
-20.4802 -25.3388 53.9327 56 26 41
-19.2388 -25.7205 53.9869 58 29 42
-17.3886 -25.321 53.8973 58 29 40
-13.4038 -25.281 53.8488 51 27 37
-7.13021 -26.8346 54.0568 72 31 52
-5.26552 -26.4362 53.9673 72 32 51
6.49949 -27.2675 53.991 129 31 58
17.5288 -26.0556 53.6629 68 75 84
18.4978 -25.795 53.607 67 77 86
22.4717 -25.9939 53.6006 70 79 91
23.41 -25.8525 53.5659 70 80 90
30.1062 -25.9854 53.5196 68 77 82
31.5585 -25.6532 53.446 71 78 88
32.068 -25.4625 53.4071 69 76 89
42.5947 -25.0257 53.2206 65 70 78
43.5078 -25.0033 53.2072 68 74 78
49.8282 -25.087 53.1561 68 72 81
50.7025 -25.1849 53.1642 68 76 82
52.873 -24.1749 52.9639 64 74 78
54.7966 -23.8875 52.8933 64 70 77
56.5509 -24.084 52.9096 68 70 77
58.5232 -23.6751 52.8171 64 65 70
59.7965 -23.9438 52.8511 66 68 72
60.7186 -23.9211 52.8375 66 67 72
61.6411 -23.8983 52.8239 65 63 69
62.8693 -24.2881 52.8797 63 59 66
63.7473 -24.3865 52.8879 65 67 70
64.8056 -24.0003 52.8089 71 74 75
69.6855 -22.0091 52.4078 117 139 160
70.5894 -23.2554 52.6176 119 139 156
-25.3574 -23.3323 53.1959 70 54 65
-24.183 -24.0731 53.3145 68 29 47
-22.6049 -24.9793 53.4581 61 30 46
-22.1742 -25.0276 53.4621 56 27 42
-12.564 -25.4967 53.4441 52 28 39
-6.23673 -26.8133 53.6103 56 29 45
2.34797 -27.8966 53.7115 100 25 50
3.73126 -27.6874 53.66 114 25 50
4.6545 -27.5476 53.6256 127 26 53
5.57858 -27.4078 53.5912 134 28 57
7.76663 -27.5313 53.59 113 30 54
16.6322 -26.0779 53.2401 66 71 81
20.2025 -26.109 53.208 70 79 91
21.573 -26.0164 53.1773 71 79 92
27.6832 -25.0951 52.9502 66 75 80
28.5171 -25.3123 52.9799 68 77 87
33.8131 -25.658 52.9853 69 76 85
40.5381 -25.7909 52.9382 68 72 85
41.528 -25.5288 52.8815 67 69 81
42.5589 -25.1463 52.803 65 70 75
43.4718 -25.1239 52.7895 66 73 77
44.8218 -25.1504 52.78 66 75 80
45.8978 -24.6465 52.6796 66 73 82
46.7314 -24.8649 52.7094 65 72 81
48.4796 -25.0608 52.7257 67 73 78
49.7908 -25.2077 52.7379 68 73 78
50.6233 -25.426 52.7677 67 75 81
51.6647 -25.0425 52.689 69 76 84
53.3152 -24.2243 52.5271 67 73 80
55.1964 -24.058 52.4779 65 68 77
57.5188 -23.9406 52.4328 65 66 71
62.0844 -23.9479 52.3861 64 61 67
67.0696 -22.861 52.1416 76 77 85
68.8067 -21.9106 51.9554 90 110 127
-68.15 -15.2229 51.7751 71 76 87
-26.5778 -22.8291 52.685 66 66 73
-24.538 -23.6678 52.8123 68 33 50
-23.4381 -24.7644 52.9953 69 31 48
16.7371 -25.7207 52.7394 68 73 81
17.6044 -25.8178 52.7475 67 76 82
18.5058 -25.7958 52.734 67 78 83
21.6118 -25.8974 52.7191 70 78 87
22.5147 -25.8753 52.7056 69 77 87
23.9228 -25.663 52.653 70 79 87
24.8626 -25.5213 52.6179 68 78 83
25.7675 -25.4991 52.6044 67 76 80
26.7808 -25.1177 52.5259 67 75 79
29.5697 -26.2958 52.7055 69 73 86
37.696 -26.2169 52.6054 68 76 84
38.7602 -25.7159 52.5052 67 76 81
39.1959 -25.7647 52.5092 67 75 80
46.6132 -25.2263 52.335 65 75 83
47.0092 -25.3954 52.3609 65 75 83
54.7619 -24.0092 52.0326 67 72 77
58.4441 -23.9182 51.9774 62 66 69
59.8046 -23.9445 51.9677 63 64 68
60.7267 -23.9218 51.9539 65 65 70
61.6493 -23.899 51.94 64 63 69
62.9221 -24.1678 51.9743 59 59 64
66.7246 -22.5681 51.65 72 74 78
67.8819 -21.9343 51.5252 72 80 87
69.1595 -22.2049 51.5597 108 135 151
-25.7335 -23.0458 52.2798 71 62 71
-22.1416 -24.9096 52.5738 60 29 45
-21.3047 -25.1248 52.6032 52 27 40
-20.4682 -25.3399 52.6327 55 27 41
-19.1763 -25.4846 52.6447 57 28 40
2.41626 -27.6612 52.8021 102 26 50
4.66249 -27.5484 52.758 130 26 53
5.58657 -27.4086 52.7232 132 29 57
6.41811 -27.6234 52.7526 119 27 55
7.7432 -27.6502 52.7432 121 28 54
15.3734 -25.8138 52.3342 69 73 80
19.3774 -25.8933 52.3055 68 77 83
20.2106 -26.1098 52.3352 69 79 87
35.6003 -25.734 52.1038 69 74 84
42.5273 -25.2671 51.9465 66 71 79
43.7963 -25.5339 51.9805 64 71 80
44.7493 -25.3915 51.9449 66 73 82
45.7032 -25.249 51.9093 65 72 80
46.4952 -25.5872 51.9611 67 76 85
47.8865 -25.4937 51.9296 66 76 84
48.801 -25.4714 51.9159 68 77 83
49.6332 -25.6894 51.9458 68 73 83
50.5481 -25.6671 51.9321 67 75 82
51.5471 -25.4043 51.8746 68 77 81
52.7162 -24.6591 51.7291 70 76 80
53.719 -24.395 51.6713 66 72 75
54.766 -24.0096 51.5914 67 71 75
55.6429 -24.1078 51.5995 65 66 72
56.4767 -24.327 51.6297 65 65 74
58.8433 -24.0888 51.562 63 65 68
62.137 -23.8273 51.4801 60 59 62
63.3652 -24.2173 51.5365 60 60 65
64.3334 -24.0734 51.5005 63 66 69
65.0438 -23.3945 51.3718 65 69 72
65.7108 -22.8354 51.265 67 71 74
67.1235 -22.7398 51.2329 70 76 80
70.1612 -23.2072 51.2838 125 142 157
-27.4105 -22.6135 51.7856 66 69 82
-26.5935 -22.9493 51.837 68 70 81
-25.3932 -23.5718 51.9356 73 53 65
-24.5059 -23.5493 51.922 69 35 52
15.8777 -25.6242 51.8585 69 71 80
16.7451 -25.7214 51.8666 68 73 82
17.6125 -25.8186 51.8747 69 73 82
18.4798 -25.9157 51.8827 68 75 81
20.6828 -26.0395 51.8812 69 78 86
22.5227 -25.8761 51.832 69 78 83
23.9309 -25.6638 51.7788 71 80 85
24.8707 -25.522 51.7433 69 76 85
25.7756 -25.4999 51.7296 67 75 81
26.7529 -25.2382 51.6722 69 76 79
27.5866 -25.4554 51.7021 68 73 78
28.3836 -25.7921 51.7538 68 72 79
29.5411 -26.4158 51.8531 67 72 80
30.7702 -26.8002 51.9087 69 75 79
33.8252 -25.6591 51.6714 67 70 79
35.6805 -25.4948 51.6219 67 70 83
36.4368 -25.9517 51.6956 67 74 83
38.8071 -25.5967 51.6065 67 75 81
39.6396 -25.8142 51.6365 67 72 80
40.5502 -25.792 51.6227 68 72 80
41.5401 -25.5299 51.5651 67 72 80
57.4876 -24.0627 51.1304 64 65 70
66.7785 -22.4469 50.7407 71 73 78
69.516 -22.4993 50.7206 134 156 157
-23.4018 -24.6468 51.6731 69 28 47
-22.5399 -24.7434 51.6811 69 28 47
-19.5738 -25.3186 51.7524 56 26 41
-18.2816 -25.4634 51.7644 53 28 40
3.74722 -27.6888 51.9255 118 27 51
4.63978 -27.6672 51.9119 126 28 54
5.56364 -27.5275 51.8767 122 30 55
6.82614 -27.7906 51.9104 113 28 51
7.71979 -27.7691 51.8968 126 31 56
21.5891 -26.0178 51.4309 68 74 83
34.8134 -25.3975 51.1755 61 64 77
37.3883 -25.8101 51.2218 67 76 80
52.5978 -25.0215 50.9146 68 77 81
53.5575 -24.8785 50.8784 69 75 82
54.6887 -24.2522 50.7534 66 69 75
55.6081 -24.2295 50.7394 65 66 68
56.528 -24.2068 50.7253 64 64 65
58.8514 -24.0896 50.6789 62 64 66
59.7729 -24.0668 50.6648 62 61 63
61.6615 -23.9001 50.6143 62 61 65
62.5398 -23.9985 50.6224 58 57 62
63.9023 -24.0249 50.6124 62 64 66
65.0067 -23.5167 50.5089 67 70 70
65.6735 -22.9579 50.4011 68 70 71
67.1317 -22.7405 50.3462 71 74 79
67.9402 -21.8131 50.1705 69 81 81
68.3817 -21.8626 50.1746 70 97 93
70.1693 -23.2079 50.3972 166 182 162
-27.426 -22.7337 50.9377 66 70 76
-26.5855 -22.95 50.9676 69 69 76
-21.6988 -24.9589 51.2772 63 27 44
-21.2679 -25.0072 51.2812 58 27 43
-20.8122 -24.9369 51.2635 54 25 40
-20.4063 -25.1038 51.2892 54 26 41
2.79856 -27.9466 51.5489 107 24 51
8.18651 -27.6996 51.4452 133 34 59
16.7531 -25.7221 50.9938 68 73 82
22.5308 -25.8768 50.9585 67 73 79
23.9389 -25.6645 50.9046 70 75 78
24.9143 -25.4032 50.8467 69 74 79
25.7836 -25.5006 50.8548 67 73 80
26.7609 -25.2389 50.7968 69 75 81
27.6309 -25.3364 50.8049 67 71 77
28.3553 -25.9123 50.9011 66 67 77
33.871 -25.54 50.7733 65 74 78
34.7796 -25.5177 50.7593 61 71 78
36.4832 -25.8327 50.7976 68 77 79
38.8929 -25.3575 50.6853 71 76 83
39.8039 -25.3352 50.6713 69 71 80
40.7153 -25.3129 50.6573 68 72 80
41.7062 -25.0503 50.5989 66 74 78
43.8885 -25.2948 50.6192 66 73 77
44.8017 -25.2725 50.6052 64 70 74
45.6749 -25.3703 50.6133 66 72 76
46.9438 -25.6372 50.6476 67 73 77
47.8577 -25.6149 50.6336 67 74 76
48.8132 -25.4725 50.5974 68 72 76
49.6867 -25.5703 50.6055 67 70 78
50.5602 -25.6682 50.6136 68 73 81
51.0804 -25.4768 50.5733 69 74 80
57.0138 -24.1354 50.2658 63 62 64
60.6988 -24.0444 50.209 61 60 63
62.9384 -24.1692 50.207 59 59 62
66.7866 -22.4476 49.8536 72 71 75
69.5706 -22.3779 49.8105 179 200 177
-25.7413 -23.1667 50.5629 71 60 68
-24.5662 -23.9079 50.6845 71 34 47
-23.3938 -24.6475 50.8058 66 28 43
-22.5319 -24.7441 50.8138 69 29 44
-19.1098 -25.2489 50.8677 54 26 40
-18.2991 -25.5826 50.9193 55 27 41
15.3895 -25.8153 50.5894 68 71 79
17.5569 -26.0581 50.6095 69 73 82
18.7892 -26.4419 50.6656 69 73 82
19.6558 -26.539 50.6737 68 73 79
20.6948 -26.0406 50.5717 67 73 77
28.7575 -26.0808 50.4899 66 67 77
29.48 -26.6554 50.5862 65 68 75
30.7454 -26.9203 50.6204 67 71 79
31.2903 -26.6115 50.5583 65 70 79
32.2332 -26.4702 50.5222 67 75 81
32.9668 -25.5626 50.3493 68 76 82
35.2571 -25.4471 50.303 66 76 78
37.4734 -25.5712 50.3011 69 76 79
42.1071 -25.2197 50.1861 69 74 79
43.0994 -24.9569 50.1274 68 74 78
55.4875 -24.5928 49.9244 65 66 69
56.9313 -24.3776 49.8694 63 62 65
57.895 -24.234 49.8326 63 62 67
58.7285 -24.4532 49.8632 62 62 65
59.781 -24.0675 49.7816 63 64 63
61.714 -23.7796 49.7079 60 58 61
62.5926 -23.878 49.7161 60 59 62
64.4849 -23.711 49.6649 66 67 66
65.6816 -22.9587 49.515 65 68 66
67.1398 -22.7413 49.4594 73 73 79
67.9024 -21.9362 49.3048 72 81 78
68.2975 -22.1078 49.3316 74 100 90
-68.5461 -15.0545 49.1255 71 76 84
-63.2061 -18.1129 49.6238 68 70 82
-24.155 -24.0756 50.2763 69 32 44
-21.6908 -24.9596 50.4101 67 29 44
-21.26 -25.0079 50.4141 64 29 43
1.60451 -27.4484 50.6046 91 27 48
2.86706 -27.7113 50.6384 109 28 54
4.65175 -27.6683 50.6107 118 31 58
5.54472 -27.6468 50.5968 112 28 54
6.80693 -27.9098 50.6308 121 26 49
7.70038 -27.8883 50.6169 135 31 56
21.6012 -26.0189 50.1211 69 73 81
24.9935 -25.1645 49.9275 66 71 78
25.8274 -25.3817 49.9578 66 72 79
26.733 -25.3594 49.9437 69 74 82
27.6027 -25.4568 49.9517 68 72 80
33.8037 -25.7802 49.9416 69 74 82
34.7119 -25.7581 49.9275 68 76 80
39.8902 -25.0958 49.749 67 70 79
40.7627 -25.1936 49.7571 67 71 79
41.7143 -25.051 49.7205 68 73 79
44.4939 -24.8634 49.6554 67 73 77
45.7639 -25.1306 49.6899 65 72 74
46.5154 -25.589 49.7652 66 74 77
47.8248 -25.7357 49.7774 64 74 74
50.6099 -25.5487 49.7122 68 74 79
51.6093 -25.2858 49.6532 67 73 77
53.9223 -25.1697 49.6062 66 74 78
54.4875 -24.8571 49.5429 66 72 76
60.707 -24.0451 49.3255 61 59 60
63.0807 -23.8063 49.2555 61 60 61
65.1548 -23.1531 49.1133 66 67 66
68.7428 -22.1576 48.8918 112 137 117
69.6252 -22.2565 48.9 198 211 178
70.2746 -22.9654 49.022 218 205 174
-68.5563 -15.1768 48.7107 71 76 84
-60.2543 -19.0551 49.3279 67 69 81
-27.414 -22.7348 49.6333 65 71 76
-26.5261 -22.7121 49.6191 68 69 77
-25.4211 -23.8119 49.8082 73 52 60
-24.1752 -24.195 49.8644 67 31 45
-23.4345 -24.8856 49.9826 64 29 44
-22.093 -24.7931 49.9506 68 28 44
-18.1635 -24.9902 49.9426 51 28 38
15.831 -25.8645 49.721 68 72 81
17.4974 -26.297 49.7815 70 74 81
18.7291 -26.6806 49.838 68 73 81
19.5611 -26.8965 49.8682 69 73 81
20.5648 -26.5179 49.7875 67 72 80
21.5704 -26.1385 49.7067 67 73 80
22.5079 -25.9972 49.6703 68 72 77
23.951 -25.6656 49.5934 68 72 79
28.6199 -26.5588 49.7046 67 72 80
29.8855 -26.8238 49.7389 67 72 78
30.7535 -26.9211 49.747 65 71 77
31.7326 -26.6609 49.6883 66 74 81
32.8252 -26.0419 49.5627 67 75 84
35.1892 -25.6874 49.4712 69 74 79
42.0755 -25.3406 49.3303 68 71 79
43.5442 -25.0066 49.2526 66 71 79
44.8139 -25.2735 49.2873 67 73 78
48.2653 -25.785 49.3422 64 73 78
49.2208 -25.6426 49.3054 67 73 77
52.1765 -24.974 49.1497 67 74 77
53.1783 -24.7103 49.0902 66 72 76
59.7013 -24.3103 48.9437 61 60 62
60.6669 -24.1666 48.9065 60 59 61
61.7666 -23.659 48.8012 61 59 60
62.69 -23.6362 48.7866 62 59 60
63.6588 -23.4918 48.7493 58 57 62
64.5833 -23.4689 48.7347 64 63 67
66.1756 -22.8869 48.6102 67 68 71
67.148 -22.742 48.5727 70 72 80
-70.1792 -14.0051 48.0762 77 71 68
-69.0009 -15.2504 48.292 72 75 84
-64.5412 -18.3302 48.8082 63 68 76
-62.3173 -18.0899 48.7388 67 69 78
-61.4519 -18.1869 48.7469 67 69 82
-21.6581 -24.8417 49.5209 71 29 48
-19.0471 -25.0127 49.5229 50 27 38
-17.7797 -25.2763 49.557 51 27 38
-0.140843 -27.3741 49.7433 78 27 47
2.9053 -27.594 49.7493 107 28 52
3.76718 -27.6906 49.7573 109 28 55
4.69044 -27.5509 49.7212 111 30 56
5.55271 -27.6475 49.7292 110 25 48
6.81492 -27.9105 49.7633 133 28 52
7.73976 -27.7709 49.7271 139 30 57
16.2685 -25.9135 49.2888 69 73 81
33.7365 -26.0202 49.1107 68 73 83
41.6828 -25.1719 48.8647 68 72 78
42.5556 -25.2697 48.8728 68 70 78
43.9047 -25.2963 48.8624 66 71 79
44.7776 -25.3941 48.8706 66 71 76
45.3275 -26.451 49.0588 66 72 76
46.2393 -26.429 49.0444 65 74 78
50.7013 -25.3089 48.7878 67 71 77
51.7012 -25.0458 48.7281 68 74 77
52.7024 -24.7822 48.6683 66 71 76
53.6201 -24.7597 48.6537 66 72 76
65.1629 -23.1538 48.2276 63 63 66
-68.5483 -15.1775 47.8363 69 74 82
-63.642 -18.1862 48.3363 63 68 76
-57.188 -19.1541 48.4416 61 66 76
-28.3866 -23.2358 48.8673 66 70 76
-27.4295 -22.855 48.786 69 69 77
-26.5418 -22.8323 48.7717 68 68 75
-25.4131 -23.8127 48.94 71 51 56
-18.2066 -25.2284 49.1194 51 27 39
1.43676 -28.1574 49.4365 97 26 47
15.8056 -25.9844 48.871 67 69 80
17.4379 -26.5357 48.9543 68 71 81
21.5437 -26.2584 48.8562 67 74 78
22.446 -26.2365 48.8418 68 73 81
23.8531 -26.0245 48.7866 68 73 82
24.8633 -25.6441 48.7048 68 76 83
25.6965 -25.861 48.7353 68 75 84
26.5653 -25.9583 48.7434 69 76 83
27.9046 -25.9848 48.7331 66 75 80
28.7371 -26.2017 48.7636 67 76 81
29.5693 -26.4183 48.7942 68 74 81
30.7983 -26.8027 48.8512 66 73 79
31.7036 -26.7808 48.8368 68 75 84
33.6278 -26.3791 48.7406 68 72 83
37.6438 -25.0927 48.4571 68 74 77
40.8142 -25.0745 48.4175 67 73 76
45.0166 -26.0432 48.5486 67 73 77
46.8418 -25.999 48.5196 67 74 83
47.2779 -26.0478 48.5236 68 75 84
53.9345 -25.1707 48.2856 67 70 76
54.4145 -25.0993 48.2669 69 71 77
61.1139 -24.2165 48.0273 60 58 62
62.6981 -23.6369 47.9021 59 55 55
63.7118 -23.371 47.8414 55 52 53
64.5914 -23.4696 47.8496 61 57 60
65.6525 -23.0818 47.7659 64 60 62
67.8726 -22.0599 47.5517 68 73 73
-70.185 -14.1282 47.2231 75 70 71
-69.4132 -15.0805 47.391 72 72 80
-65.4127 -18.3547 47.9527 66 69 76
-64.5181 -18.2103 47.9157 65 67 76
-63.1901 -18.1144 47.8826 63 67 76
-62.2937 -17.9699 47.8454 66 68 80
-54.6941 -20.1661 48.1657 60 65 75
-26.1295 -23.0006 48.3633 70 67 71
-24.9537 -23.7422 48.4874 74 41 50
-23.3982 -24.768 48.66 65 29 44
-22.512 -24.7459 48.6457 59 27 41
-20.3823 -25.1059 48.688 64 28 44
-19.4954 -25.0839 48.6737 53 27 40
-18.2026 -25.2287 48.6857 49 26 40
-17.3921 -25.5624 48.7383 49 27 37
-7.41285 -24.4865 48.4239 57 27 42
-6.34174 -25.5838 48.6152 60 30 45
-0.534205 -27.2084 48.85 78 26 42
3.77516 -27.6913 48.8901 103 30 53
4.66772 -27.6697 48.8758 106 27 50
5.52979 -27.7663 48.8838 119 26 48
6.8229 -27.9112 48.8958 138 30 52
18.2063 -26.9897 48.5939 68 70 81
32.5387 -26.9976 48.4305 70 73 84
36.2631 -25.1867 48.0516 68 73 79
39.5091 -24.9282 47.9663 68 73 81
46.2474 -26.4297 48.1675 67 76 81
52.6683 -24.9036 47.8103 68 70 73
53.9385 -25.1711 47.8454 67 66 72
54.8135 -25.2691 47.8535 68 68 73
55.7313 -25.2467 47.8388 66 65 69
59.4942 -24.9157 47.7341 62 56 62
60.5027 -24.6515 47.6735 60 55 61
68.3179 -22.1097 47.1118 70 93 87
68.898 -21.7923 47.0462 115 135 123
-68.5402 -15.1782 46.9619 74 74 85
-61.4399 -18.188 47.4407 66 68 77
-58.1108 -19.5392 47.654 61 66 75
-57.2135 -19.3954 47.6168 62 66 76
-55.1218 -20.118 47.7273 62 64 76
-54.3106 -20.5746 47.803 59 64 74
-26.5575 -22.9526 47.9246 67 67 75
-21.6709 -24.9614 48.2425 63 27 41
-21.24 -25.0097 48.2465 67 29 43
-9.84639 -25.4349 48.1937 61 29 42
-8.38518 -24.8665 48.0708 57 29 43
-5.93436 -25.7513 48.2073 57 28 42
-4.69673 -26.1337 48.2642 61 28 45
2.85674 -27.8312 48.4931 100 29 50
15.8136 -25.9851 47.9988 67 69 78
25.776 -25.6227 47.8158 69 74 82
26.5733 -25.9591 47.8692 69 74 82
27.9489 -25.8661 47.836 70 77 84
29.5773 -26.419 47.9202 70 77 83
30.8433 -26.6843 47.9549 69 74 81
31.7116 -26.7815 47.963 67 70 79
41.2586 -25.1241 47.5434 67 71 77
42.0917 -25.342 47.5743 66 70 75
45.8156 -26.3812 47.7249 68 74 80
46.8092 -26.1195 47.6646 69 75 82
47.6404 -26.3371 47.6955 68 74 78
51.2341 -25.1183 47.4267 67 68 72
51.7972 -24.8059 47.3619 68 70 73
53.1522 -24.8324 47.3511 67 67 68
61.1663 -24.0961 47.121 58 55 60
65.6607 -23.0826 46.88 62 55 60
68.9021 -21.7927 46.6019 114 133 119
-69.4051 -15.0812 46.5166 72 72 83
-59.5484 -20.4743 47.4112 63 65 72
-56.4468 -20.2133 47.3261 61 65 71
-28.4211 -23.4754 47.6095 66 66 77
-27.8729 -22.9272 47.5005 66 66 77
-25.3054 -23.3369 47.5472 73 49 57
-24.5383 -23.9104 47.6456 76 33 51
-23.4146 -24.8874 47.8154 70 29 48
-22.5285 -24.8653 47.8009 60 25 43
-21.2608 -25.1288 47.8354 65 28 40
-20.3743 -25.1066 47.8209 69 28 43
-19.4875 -25.0846 47.8064 61 26 40
-18.2456 -25.4666 47.8635 47 27 36
-17.4098 -25.6816 47.8939 46 27 36
-8.43679 -25.105 47.6812 59 27 41
-7.83734 -24.4388 47.5494 59 27 41
-5.35642 -25.2058 47.6641 60 27 44
0.588015 -28.062 48.1294 91 27 48
2.21915 -28.6081 48.2126 95 29 49
3.84415 -27.4557 47.9778 100 27 51
4.70641 -27.5523 47.9859 112 23 49
5.56868 -27.6489 47.9939 130 27 56
16.6173 -26.3208 47.6161 68 70 78
22.4581 -26.2375 47.5323 69 72 81
28.3512 -26.0346 47.4255 71 76 84
28.8585 -25.8444 47.384 71 77 84
33.0929 -26.6895 47.4927 67 69 77
53.9042 -25.2923 46.988 62 61 63
54.8216 -25.2699 46.9731 61 60 63
55.6965 -25.3679 46.9813 60 60 63
59.9405 -24.9655 46.8563 60 55 59
61.6537 -24.0246 46.6602 58 53 57
62.6657 -23.7593 46.5987 58 53 54
63.5893 -23.7365 46.5836 57 52 50
64.0738 -23.6643 46.5645 57 52 53
67.306 -22.3779 46.2859 67 63 74
-63.2397 -18.5979 46.6681 66 70 80
-58.2513 -20.6195 46.9895 63 65 72
-55.1654 -20.4786 46.9267 60 62 71
-54.3373 -20.8149 46.9802 62 62 73
-25.6377 -22.8111 47.0177 74 60 67
-16.872 -25.256 47.3742 47 26 37
-6.99648 -24.6553 47.145 60 28 42
0.220928 -27.7783 47.6473 89 28 50
0.903178 -28.5815 47.7903 88 27 47
6.03481 -27.5794 47.5415 135 27 56
17.3528 -26.8938 47.2793 66 70 75
25.8556 -25.3842 46.8954 67 73 79
26.6532 -25.7208 46.9493 67 72 80
27.5585 -25.6987 46.9344 71 76 83
39.5994 -24.6887 46.6028 67 71 77
47.4444 -26.936 46.933 69 69 77
51.2004 -25.2394 46.5698 65 66 69
51.7634 -24.9271 46.5045 64 65 68
52.1168 -25.217 46.5548 64 65 68
60.4708 -24.7735 46.3731 57 52 54
67.843 -22.1835 45.7993 69 70 72
70.443 -22.6021 45.8474 211 198 167
-68.5282 -15.1793 45.6503 71 75 81
-63.2971 -19.0799 46.3248 66 71 81
-56.9375 -20.6451 46.545 62 66 72
-27.4095 -22.8568 46.6124 64 64 75
-26.4981 -22.7147 46.5747 64 64 75
-24.5062 -23.792 46.7546 78 33 49
-23.4066 -24.8882 46.9485 74 30 48
-22.0897 -24.9142 46.9378 59 29 41
-21.2529 -25.1295 46.9685 61 27 41
-20.3664 -25.1073 46.9539 69 27 44
-19.4795 -25.0853 46.9392 71 28 44
-18.1867 -25.2302 46.9512 54 26 36
-17.3248 -25.3267 46.9592 50 27 37
-16.4111 -25.186 46.9218 46 27 36
-8.42879 -25.1057 46.8119 73 27 46
-7.39682 -24.4879 46.683 68 26 43
-6.53182 -24.5849 46.6911 67 25 42
-5.08766 -25.9678 46.9351 68 23 42
-4.33937 -26.5386 47.034 71 26 48
-3.90824 -26.5869 47.038 72 25 46
1.51656 -27.9234 47.2261 86 28 49
1.79706 -28.5606 47.3431 88 29 50
2.43796 -27.784 47.1888 92 29 54
16.5582 -26.5594 46.7901 68 69 79
28.3592 -26.0353 46.5511 70 74 83
29.6626 -26.1814 46.5633 68 72 77
30.4579 -26.5174 46.6173 68 67 75
39.4862 -25.0498 46.233 65 68 74
41.6676 -25.2942 46.2533 65 69 75
44.7954 -26.7632 46.4936 67 71 74
45.7065 -26.7412 46.4786 69 73 76
46.142 -26.79 46.4827 67 71 74
49.7686 -25.4538 46.1873 67 68 72
50.7256 -25.3111 46.1491 65 66 69
61.6174 -24.1464 45.7999 55 50 49
62.979 -24.1729 45.7888 57 50 50
64.7473 -23.1067 45.5665 57 53 52
65.2327 -23.0344 45.547 58 53 53
66.919 -22.2072 45.3708 67 60 59
68.242 -22.3554 45.3831 68 86 81
69.1704 -22.3322 45.3677 154 167 137
-69.3931 -15.0823 45.2051 69 73 79
-64.1871 -19.2239 45.9283 67 70 82
-63.3392 -19.4408 45.9593 66 71 81
-28.4556 -23.7147 46.3529 65 65 76
-25.6296 -22.8119 46.1479 71 57 68
-25.2454 -23.0992 46.1978 74 48 59
-15.597 -25.5203 46.5416 46 27 37
-4.65214 -26.0165 46.5049 79 26 49
-3.44425 -26.5171 46.5854 82 25 49
-2.61085 -26.7322 46.6162 86 26 48
0.778559 -27.3551 46.6938 80 29 48
2.96355 -27.4783 46.6911 96 26 51
3.88665 -27.3386 46.6536 117 27 53
4.81059 -27.1986 46.616 133 29 57
5.67344 -27.2953 46.624 137 28 56
6.59861 -27.1553 46.5864 136 26 54
17.3608 -26.8945 46.4083 67 68 79
31.2935 -26.7344 46.2114 65 63 71
38.9373 -25.3615 45.8597 66 65 73
39.8483 -25.3392 45.8446 65 65 73
40.6419 -25.6769 45.8991 65 65 73
49.6484 -25.8145 45.8176 66 67 71
50.688 -25.4318 45.7326 66 67 70
51.6876 -25.1688 45.6707 63 64 63
52.4779 -25.5074 45.7255 64 62 62
54.7484 -25.5117 45.6992 61 58 61
55.623 -25.6097 45.7073 61 59 63
60.4789 -24.7742 45.4908 55 52 54
63.996 -23.9081 45.2845 56 51 53
68.6409 -22.5273 44.9672 115 129 118
69.5227 -22.6261 44.9754 199 203 169
70.7054 -23.1399 45.0587 221 200 162
-68.5201 -15.18 44.776 72 72 83
-64.1528 -18.9838 45.4478 67 69 81
-54.3427 -20.9356 45.7014 59 60 64
-53.4277 -20.6731 45.6404 59 57 66
-29.337 -23.7375 45.9339 64 66 78
-27.4485 -23.0965 45.789 63 63 71
-24.4257 -23.4352 45.8171 81 30 50
-5.34042 -25.2073 45.9248 81 25 47
1.80502 -28.5613 46.4776 88 26 47
6.66496 -26.9188 46.1062 137 27 53
17.7976 -26.9434 45.9768 68 70 80
26.3743 -25.1945 45.5405 68 72 78
27.8603 -26.2262 45.7191 68 72 80
28.7653 -26.2042 45.704 69 71 76
29.5608 -26.5401 45.7584 69 68 73
30.7896 -26.9243 45.8167 66 65 69
37.5563 -25.4553 45.4555 69 68 74
41.36 -26.254 45.5618 64 65 69
44.4082 -26.5956 45.5901 68 69 72
45.755 -26.6224 45.579 67 62 71
46.6667 -26.6004 45.5638 65 64 68
47.4972 -26.8176 45.5952 65 64 66
53.3561 -25.6057 45.2938 63 61 62
61.5369 -24.3893 44.9637 56 49 52
62.5035 -24.2455 44.9246 56 48 52
63.9102 -24.1509 44.8897 57 51 54
65.681 -23.0844 44.6652 62 55 59
66.6984 -22.8178 44.6022 64 58 59
70.6629 -23.2621 44.6391 219 200 162
-69.8195 -15.0344 44.3266 70 71 75
-64.5353 -18.5745 44.9396 67 67 80
-63.239 -18.7198 44.9517 67 69 81
-28.494 -23.9534 45.5311 62 64 73
-26.5571 -23.0742 45.3394 64 64 72
-25.6694 -23.0515 45.3243 72 57 68
-23.9657 -23.3646 45.3635 85 32 50
-22.4349 -24.5107 45.5642 68 29 46
-20.3544 -25.1084 45.6533 57 26 41
-19.4927 -25.205 45.6613 70 27 45
-18.2002 -25.3498 45.6733 76 29 47
-17.3385 -25.4463 45.6813 67 29 45
-16.4509 -25.4244 45.6663 54 27 39
-15.2105 -25.8062 45.7243 48 28 39
-8.30552 -24.6305 45.4157 77 28 45
-2.51564 -26.3776 45.6795 76 29 48
3.89464 -27.3393 45.7857 129 27 53
4.84934 -27.081 45.7247 139 30 57
6.70018 -26.8006 45.6486 140 29 55
37.5989 -25.3358 44.9936 66 65 70
49.7393 -25.5751 44.892 64 63 66
50.6545 -25.5527 44.8767 63 60 63
51.6119 -25.4101 44.8378 64 61 65
52.3599 -25.8687 44.9164 61 58 62
53.7972 -25.655 44.8581 61 60 59
54.6713 -25.753 44.8662 59 57 61
55.5455 -25.8509 44.8744 61 58 60
56.4196 -25.9488 44.8825 59 59 56
58.9971 -25.1105 44.6909 57 54 56
64.624 -23.4725 44.3093 60 54 56
66.1709 -23.0124 44.2026 62 57 59
67.0972 -22.9893 44.1869 62 60 73
67.5376 -23.0386 44.191 66 64 74
-69.3951 -15.2054 43.9171 70 70 78
-68.5263 -15.3027 43.9252 70 70 78
-67.3394 -16.4215 44.1255 73 73 84
-59.5245 -20.4764 44.8088 64 65 77
-56.5072 -20.8145 44.8369 63 62 68
-55.2141 -20.9594 44.8489 59 60 65
-54.3347 -20.9364 44.8337 60 59 65
-53.4197 -20.6738 44.7721 57 55 64
-52.5569 -20.7705 44.7801 58 56 65
-27.4874 -23.3357 44.9664 64 65 69
-26.1212 -23.1229 44.9088 68 63 69
-25.2574 -23.2197 44.9169 75 47 58
-24.3936 -23.3165 44.9249 85 31 52
-23.5298 -23.4133 44.9329 86 29 50
-23.2444 -24.1766 45.076 79 27 48
-21.9998 -24.5594 45.1343 66 29 46
-21.2369 -25.1309 45.2348 56 28 42
-14.9594 -26.6827 45.4561 51 26 41
-8.87239 -25.1777 45.0926 71 31 47
-7.35274 -24.3701 44.919 74 31 45
2.27314 -28.4925 45.5931 100 25 50
2.94522 -27.5976 45.413 110 27 54
5.31574 -27.0113 45.2714 141 31 59
5.80933 -26.8228 45.2291 142 31 58
25.9116 -25.2663 44.6845 67 71 76
27.9046 -26.1076 44.8217 68 71 77
29.5689 -26.5408 44.8846 65 64 69
38.1549 -25.0248 44.4885 63 63 71
39.7823 -25.5804 44.5753 63 64 68
40.654 -25.678 44.5834 64 65 70
41.4863 -25.8955 44.615 66 67 72
44.4965 -26.357 44.6668 67 67 71
45.9248 -26.1442 44.6085 65 64 68
46.7561 -26.3618 44.6401 64 62 66
48.7874 -25.7178 44.4916 63 60 65
59.9648 -24.9677 44.2109 57 53 53
60.5352 -24.6545 44.1438 56 52 52
65.6438 -23.2068 43.8033 61 56 57
68.5147 -22.8941 43.7081 123 135 131
69.6509 -23.5291 43.8162 212 198 160
-70.1765 -14.376 43.3296 72 67 68
-22.4024 -24.3926 44.6733 73 29 48
-20.3714 -25.2278 44.8094 54 28 40
-19.5099 -25.3243 44.8174 56 27 41
-18.1922 -25.3505 44.8062 75 27 47
-17.3562 -25.5656 44.8374 79 28 48
-16.4688 -25.5436 44.8222 72 28 46
-14.4728 -26.4951 44.9812 53 28 40
-12.7784 -26.806 45.0203 51 26 41
3.96372 -27.1034 44.8715 119 28 54
4.88811 -26.9633 44.8331 137 31 59
6.70818 -26.8013 44.7794 138 30 57
7.60343 -26.7795 44.7642 133 28 54
23.9286 -25.9088 44.3952 68 73 78
28.2704 -26.3953 44.4356 67 67 73
42.0448 -25.585 44.1097 67 66 75
44.6612 -25.8781 44.134 66 65 70
45.695 -25.4959 44.0476 64 63 66
46.4866 -25.8338 44.103 65 63 67
47.9183 -25.6203 44.0442 63 60 65
52.889 -25.6781 43.9941 61 58 60
53.8053 -25.6557 43.9785 63 59 63
54.7646 -25.5132 43.9392 59 56 60
55.6392 -25.6112 43.9473 60 57 58
56.4707 -25.8294 43.9792 59 57 54
57.518 -25.4461 43.8924 59 55 55
59.5308 -24.919 43.7659 57 52 54
60.5833 -24.534 43.6787 55 50 52
61.5934 -24.2694 43.6152 54 48 51
62.5603 -24.1255 43.5756 54 47 53
63.3937 -24.345 43.6076 56 50 53
64.0123 -23.9096 43.516 58 53 55
66.1335 -23.1348 43.3405 62 57 58
67.1054 -22.99 43.3006 60 59 73
67.454 -23.2828 43.3528 67 64 76
68.867 -23.1874 43.317 162 166 142
-67.3168 -16.3008 43.2292 72 74 83
-64.4932 -18.3346 43.5881 63 67 73
-63.1962 -18.4799 43.6002 66 70 76
-56.4992 -20.8152 43.9694 62 60 65
-55.189 -20.8405 43.958 60 59 64
-54.292 -20.6976 43.9193 60 55 66
-53.3766 -20.4347 43.857 58 56 62
-52.5311 -20.6514 43.8885 57 57 65
-23.2608 -24.2963 44.2313 86 29 50
-21.6597 -25.0834 44.3639 64 28 42
-15.6814 -25.9959 44.4665 68 26 39
-13.5552 -26.3554 44.5098 56 26 42
-8.72581 -24.5832 44.1066 58 29 43
2.98351 -27.4801 44.5224 91 30 52
5.35462 -26.8935 44.3794 136 30 58
23.9679 -25.7897 43.9348 68 70 77
24.9076 -25.6481 43.8957 69 70 77
25.848 -25.5064 43.8565 66 69 74
38.9186 -25.4834 43.69 66 62 69
39.7903 -25.5811 43.6981 65 64 70
40.6621 -25.6788 43.7062 65 64 70
41.6128 -25.5365 43.6669 67 66 72
42.4452 -25.7542 43.6987 69 65 72
43.7931 -25.7808 43.6871 64 64 70
45.8206 -25.1357 43.537 65 63 69
46.4907 -25.8341 43.664 64 61 66
48.4823 -25.3091 43.5376 62 59 64
49.3974 -25.2867 43.5219 60 57 62
50.5833 -25.7941 43.6055 60 55 56
58.6149 -24.9419 43.3408 57 50 51
65.6065 -23.3291 42.9417 64 56 57
66.5777 -23.1845 42.9016 64 56 58
67.4123 -23.4048 42.934 66 64 76
68.8248 -23.3095 42.898 158 161 142
69.7746 -24.4288 43.103 206 185 162
-70.1963 -14.6211 42.5021 74 67 65
-69.397 -15.3283 42.6297 69 68 74
-68.5285 -15.4256 42.6378 72 73 77
-49.5803 -21.4688 43.5763 57 59 68
-48.3056 -21.7332 43.6118 60 60 67
-47.4246 -21.7104 43.5964 59 57 66
-27.5223 -23.5753 43.7104 62 62 73
-26.1805 -23.4819 43.6755 67 61 69
-25.3173 -23.5786 43.6835 76 43 54
-24.454 -23.6754 43.6915 92 30 48
-23.5665 -23.6529 43.6761 94 30 50
-22.3698 -24.2744 43.782 76 29 46
-19.4767 -25.2064 43.9271 53 27 39
-18.1842 -25.3512 43.9391 63 26 43
-17.3739 -25.6848 43.9939 77 27 47
-16.4609 -25.5443 43.9552 84 29 48
-12.7171 -26.5704 44.1079 59 27 43
-4.22535 -26.1856 43.927 67 27 43
4.89611 -26.964 43.9644 120 31 56
6.71618 -26.802 43.9102 133 30 58
7.61143 -26.7802 43.8947 129 31 56
8.47545 -26.877 43.9028 123 30 53
28.6035 -26.8022 43.6367 65 64 67
44.4741 -25.1095 43.1092 63 63 71
47.4081 -25.8123 43.2093 64 58 66
58.6189 -24.9422 42.9 56 49 47
59.5827 -24.799 42.8601 54 46 46
60.5473 -24.6556 42.8201 54 48 49
61.6015 -24.2701 42.732 52 47 46
62.5238 -24.2473 42.716 54 48 47
64.0205 -23.9103 42.6318 61 53 55
69.6399 -24.7925 42.7331 198 181 160
-64.5304 -18.6968 42.7893 66 66 77
-53.3686 -20.4355 42.9883 59 56 61
-50.4385 -21.3726 43.1345 59 61 70
-23.2772 -24.4159 43.387 89 30 50
-21.6517 -25.0841 43.497 69 30 45
-20.7653 -25.0619 43.4816 59 28 42
-13.2232 -26.8769 43.7411 65 24 40
-3.78993 -26.2343 43.4969 74 26 42
-2.86905 -26.0938 43.4579 82 26 44
3.97571 -27.1045 43.5691 81 28 49
5.79434 -26.9426 43.5146 129 33 60
27.7397 -26.7053 43.1921 64 63 70
38.7714 -25.9634 42.9084 64 61 66
40.6309 -25.7993 42.8529 64 63 66
41.5813 -25.6572 42.8132 66 65 68
42.4136 -25.8748 42.8452 64 63 69
47.8076 -25.9815 42.7982 63 59 62
53.8175 -25.6568 42.6591 62 57 61
54.7342 -25.6345 42.6432 61 58 63
55.6085 -25.7325 42.6514 61 57 58
56.4828 -25.8305 42.6595 59 52 54
57.5301 -25.4472 42.5715 58 50 50
63.4507 -24.225 42.2583 59 52 50
-71.3836 -13.4966 41.4216 100 87 73
-69.389 -15.329 41.7557 64 68 74
-68.5205 -15.4263 41.7638 68 72 78
-56.4366 -20.4571 42.5971 62 57 68
-55.1598 -20.7218 42.6329 59 56 61
-54.28 -20.6987 42.6172 59 56 61
-52.1769 -21.2993 42.7083 59 58 64
-51.2968 -21.2763 42.6926 59 59 66
-50.471 -21.612 42.748 59 63 69
-49.1967 -21.8762 42.7837 61 61 68
-47.4544 -21.95 42.776 59 60 65
-27.5611 -23.8142 42.8895 63 63 71
-26.2437 -23.8401 42.8778 71 60 69
-25.405 -24.0558 42.9095 76 39 53
-24.4943 -23.9144 42.8702 90 32 50
-23.2732 -24.4163 42.9532 92 32 52
-22.411 -24.5129 42.9612 80 29 46
-15.6434 -25.8786 43.1432 86 26 50
-5.97137 -26.1116 43.0663 71 25 42
26.6216 -25.9634 42.6241 64 61 65
27.7438 -26.7057 42.7555 63 63 68
28.6115 -26.8029 42.7635 63 63 69
46.3101 -25.0654 42.1985 62 64 66
48.33 -25.7908 42.3151 63 60 59
58.7143 -24.7015 41.9699 53 45 50
59.7224 -24.4372 41.9053 53 46 51
60.5995 -24.5354 41.9134 52 45 47
62.6212 -24.0059 41.784 58 48 49
63.4995 -24.1043 41.7921 58 50 50
64.6936 -23.3532 41.6297 63 55 57
65.6187 -23.3302 41.6135 63 53 55
66.5443 -23.3073 41.5972 66 59 58
67.3329 -23.649 41.6542 70 66 83
68.7448 -23.5538 41.6177 159 157 144
-70.1842 -14.6222 41.1896 71 66 67
-48.7619 -21.9248 42.3541 61 62 66
-24.5144 -24.0338 42.4599 91 30 50
-20.3765 -25.3481 42.6658 61 30 40
-19.5404 -25.5632 42.6975 52 28 37
-18.1978 -25.4709 42.6622 52 28 39
-17.3877 -25.8044 42.7175 55 27 41
-16.4748 -25.664 42.6782 64 30 46
-5.50763 -26.0417 42.6126 81 24 44
-4.27076 -26.4237 42.672 83 24 44
-3.4083 -26.5204 42.68 88 25 46
-2.48767 -26.3801 42.6407 89 29 49
-0.271333 -26.3847 42.6133 82 30 50
3.46094 -27.4117 42.7679 76 26 42
4.84655 -27.2019 42.7089 89 21 44
5.77134 -27.0618 42.6695 116 29 57
7.62343 -26.7813 42.5906 125 31 56
8.48746 -26.8781 42.5986 115 28 51
47.6657 -25.0924 41.7469 62 64 62
48.4985 -25.3105 41.7792 62 61 61
55.6166 -25.7332 41.7716 60 58 57
56.5339 -25.711 41.7555 60 53 53
57.5816 -25.3275 41.6666 57 48 51
61.3964 -23.616 41.2809 53 45 45
62.6699 -23.885 41.3176 56 46 49
-71.3755 -13.4973 40.5451 99 86 72
-69.395 -15.4515 40.906 71 70 73
-68.5409 -15.6706 40.9383 73 72 78
-65.7404 -17.9497 41.3529 68 67 73
-59.3506 -19.3991 41.5573 63 63 71
-58.5525 -19.9762 41.6612 63 63 71
-57.308 -20.481 41.745 63 63 70
-56.4286 -20.4578 41.7291 61 60 64
-55.169 -20.8423 41.7889 60 57 61
-54.2894 -20.8192 41.773 59 56 61
-53.4269 -20.9158 41.781 57 54 59
-52.2046 -21.539 41.8885 57 58 62
-51.3249 -21.5161 41.8727 59 60 64
-50.4812 -21.7321 41.9046 59 60 64
-49.2072 -21.9963 41.9404 60 61 65
-47.4465 -21.9507 41.9088 59 59 67
-21.6397 -25.0852 42.1967 76 30 47
-15.6615 -25.9977 42.3003 60 28 43
-12.7812 -26.9262 42.4468 90 27 48
-1.65012 -26.5956 42.2384 80 30 51
9.85136 -26.7866 42.1283 103 42 62
10.7479 -26.7647 42.1124 91 62 77
25.7966 -25.7472 41.7178 64 62 65
26.6656 -25.8446 41.7259 63 62 64
27.4261 -26.3001 41.8062 65 63 67
28.8015 -26.2075 41.7701 65 64 66
38.8223 -25.8448 41.5696 64 61 63
46.3589 -24.9458 41.295 64 61 66
46.7143 -25.2354 41.3477 63 62 65
49.0219 -25.1192 41.295 61 58 60
53.8296 -25.6579 41.3397 58 57 54
59.8623 -24.0748 40.9492 53 46 45
60.74 -24.1732 40.9573 52 46 43
62.674 -23.8853 40.8756 54 44 46
63.5974 -23.8625 40.8592 54 47 47
64.7017 -23.354 40.7444 61 53 54
65.5815 -23.4526 40.7526 61 51 54
66.5069 -23.4296 40.7362 63 55 60
67.2953 -23.7711 40.7936 68 67 82
68.6607 -23.7976 40.7812 162 162 146
-25.4408 -24.2947 41.6556 72 36 51
-24.5546 -24.2724 41.6397 89 29 49
-23.31 -24.6551 41.6995 97 30 49
-22.4727 -24.8703 41.7314 89 30 47
-21.205 -25.1338 41.7673 75 31 47
-20.4185 -25.5859 41.8469 66 29 45
-19.608 -25.9191 41.9025 58 28 43
-16.5186 -25.9016 41.859 51 27 38
-5.52806 -26.161 41.7683 89 29 49
-4.29145 -26.5429 41.8281 92 27 50
-3.42918 -26.6395 41.8361 94 29 52
-2.50877 -26.4993 41.7963 86 28 49
-1.156 -26.4073 41.7605 81 27 48
-0.322554 -26.6225 41.7925 82 25 47
1.71436 -27.3374 41.908 94 24 46
2.57643 -27.434 41.916 101 23 49
3.40809 -27.6488 41.9479 106 23 47
4.82379 -27.3209 41.8645 111 20 47
5.71739 -27.2993 41.8486 120 23 51
6.67377 -27.0408 41.785 125 26 54
8.49546 -26.8788 41.7292 111 27 53
9.85536 -26.7869 41.6933 101 41 63
10.7841 -26.6464 41.6534 90 62 75
45.8854 -25.0176 40.8756 63 60 62
47.6738 -25.0931 40.8675 65 61 67
48.5889 -25.0706 40.8512 62 59 64
49.5044 -25.0482 40.8349 63 58 61
54.9637 -25.034 40.7614 59 54 52
55.7532 -25.373 40.8184 60 54 51
56.6712 -25.3506 40.8021 58 51 48
57.6763 -25.0872 40.7368 52 48 44
58.8574 -24.34 40.5732 51 46 43
60.8767 -23.8101 40.4418 51 46 42
68.9662 -24.2113 40.4168 184 182 153
-67.3467 -16.7886 40.272 68 69 73
-58.5445 -19.977 40.7927 62 66 72
-57.3 -20.4817 40.8771 62 63 69
-56.4206 -20.4585 40.861 59 58 64
-55.1438 -20.7233 40.8972 59 58 61
-54.264 -20.7001 40.8811 58 57 60
-53.4189 -20.9165 40.9132 57 54 59
-52.1431 -21.1811 40.9493 58 57 63
-51.2808 -21.2777 40.9573 60 61 65
-26.7063 -24.0313 41.1858 65 62 67
-18.8954 -26.7245 41.6208 55 28 41
-17.8318 -25.8756 41.4377 52 28 39
-17.427 -26.0421 41.4656 51 29 39
-6.24551 -25.4712 41.2061 80 29 48
0.915976 -27.0046 41.4184 91 24 45
7.0782 -27.208 41.3786 131 27 56
7.60401 -26.901 41.3105 128 33 58
11.3497 -26.2199 41.1259 77 60 72
25.8404 -25.6285 40.8191 63 58 63
26.6736 -25.8453 40.8515 61 59 60
27.9408 -26.1109 40.8879 63 62 64
46.7631 -25.1158 40.4442 62 59 62
53.4006 -25.6097 40.4561 60 54 57
61.848 -23.6663 39.9586 51 44 44
62.7267 -23.7648 39.9667 53 43 47
63.6504 -23.742 39.9501 56 45 50
64.6647 -23.4762 39.884 60 49 54
65.635 -23.3317 39.8425 60 50 53
66.5606 -23.3087 39.8259 62 55 56
67.395 -23.5289 39.8589 66 66 77
68.7611 -23.5553 39.8463 167 170 143
-69.411 -15.696 39.6444 66 68 70
-68.5573 -15.9149 39.677 69 70 74
-59.371 -19.6404 40.302 63 64 68
-50.8638 -21.446 40.5517 61 62 66
-49.1582 -21.7586 40.5918 61 60 63
-47.4345 -21.9518 40.6079 59 61 63
-27.1335 -23.9833 40.748 63 62 65
-26.2949 -24.1989 40.7801 67 53 61
-25.4567 -24.4144 40.8122 68 33 46
-24.1881 -24.6779 40.8483 95 31 47
-23.3507 -24.8932 40.8804 100 29 45
-22.1569 -25.5121 40.9886 92 30 49
-21.2714 -25.4901 40.9726 79 28 45
-20.0803 -26.108 41.0806 68 29 42
-5.11724 -26.3286 40.9283 76 30 50
-4.28347 -26.5436 40.9604 87 27 50
-3.4212 -26.6402 40.9684 99 24 48
-2.50078 -26.5 40.9283 101 22 49
-1.17741 -26.5265 40.9162 100 21 48
-0.344147 -26.7417 40.9483 97 23 46
6.65058 -27.16 40.9402 134 27 54
8.50346 -26.8796 40.8598 107 27 49
9.89534 -26.6689 40.7994 91 38 59
10.8243 -26.5284 40.759 88 59 73
27.1121 -25.8944 40.4183 62 62 62
28.4519 -25.921 40.4061 63 61 61
48.5558 -25.1917 39.9962 61 58 61
52.4885 -25.6324 40.0328 58 55 55
55.7185 -25.4941 39.9627 57 50 48
56.6793 -25.3514 39.9215 56 49 47
58.8219 -24.4616 39.7153 54 45 45
-68.1338 -16.0854 39.269 70 69 75
-59.3833 -19.7609 39.8919 62 64 68
-58.5365 -19.9777 39.9243 62 66 69
-54.2386 -20.5811 39.9887 56 55 60
-48.6861 -21.5683 40.1137 58 57 63
-27.584 -24.0543 40.3343 62 61 64
-22.916 -24.9418 40.451 103 28 51
-20.1264 -26.3448 40.696 70 28 45
-19.0137 -27.3144 40.8761 60 29 42
-6.03228 -26.4692 40.5347 58 29 43
0.923965 -27.0054 40.5505 107 24 48
1.38516 -26.9353 40.5303 113 25 51
2.58841 -27.4351 40.6148 127 24 51
3.38967 -27.7678 40.6711 136 26 52
4.80502 -27.4402 40.5866 139 28 54
5.20543 -27.6067 40.6148 140 28 54
7.11749 -27.0902 40.4857 139 29 55
7.64344 -26.7831 40.417 136 34 59
11.4225 -25.9827 40.2062 75 61 72
23.6404 -25.5053 39.9488 64 63 66
43.6695 -26.2634 39.8364 60 59 62
45.6545 -25.7396 39.7049 60 57 59
46.5677 -25.7174 39.6884 60 57 59
47.5631 -25.4549 39.6225 58 53 54
49.0381 -25.1207 39.5359 60 56 57
54.8478 -25.3965 39.5145 57 50 48
57.2074 -25.1598 39.4357 55 48 48
57.7319 -24.9677 39.3902 56 47 49
59.352 -24.2692 39.2284 51 45 43
60.3615 -24.0043 39.1619 50 44 41
66.5688 -23.3095 38.9402 64 54 55
67.4032 -23.5296 38.9734 69 67 79
68.8154 -23.4344 38.9356 170 167 148
-69.4311 -15.94 38.8204 66 65 68
-68.1584 -16.3287 38.8819 69 68 74
-58.5489 -20.098 39.5145 63 64 68
-57.288 -20.4827 39.5753 62 62 65
-56.8736 -20.6508 39.6037 62 62 63
-55.9943 -20.6277 39.5873 59 59 59
-52.5623 -21.1339 39.6438 60 60 68
-51.2508 -21.1592 39.6314 60 61 65
-50.4248 -21.495 39.6882 60 59 65
-49.1132 -21.5204 39.6759 60 55 63
-28.3492 -23.4818 39.7953 63 62 65
-27.149 -24.103 39.9046 65 62 64
-26.3106 -24.3185 39.9369 66 51 55
-25.4726 -24.5338 39.9692 67 30 44
-23.3671 -25.0125 40.0378 102 28 53
-20.8828 -25.7759 40.1587 81 26 46
1.35919 -27.054 40.1206 112 27 55
8.57476 -26.6431 39.9417 114 30 56
9.50292 -26.5025 39.9009 90 29 48
10.8967 -26.2915 39.8398 84 60 71
11.9894 -25.555 39.6767 72 66 74
25.311 -25.9393 39.577 63 61 67
26.6498 -25.9659 39.5645 63 60 62
27.4463 -26.3019 39.6217 64 61 63
28.3872 -26.1606 39.5807 62 61 60
44.1893 -26.0731 39.3527 62 60 58
52.3704 -25.9935 39.2278 58 52 49
58.7863 -24.5832 38.8579 51 45 43
59.8826 -24.0767 38.7411 49 45 41
60.8045 -24.0539 38.7242 48 44 44
61.8602 -23.6674 38.6322 49 41 45
62.739 -23.7659 38.6404 50 40 43
63.6177 -23.8644 38.6485 51 42 43
64.6318 -23.5988 38.5815 56 48 48
65.162 -23.4051 38.5353 59 50 50
69.1672 -23.7272 38.547 192 183 154
69.9543 -24.0686 38.6054 205 184 153
70.7408 -24.4097 38.6638 208 185 155
-70.9981 -14.2828 38.0693 89 82 72
-70.2254 -15.2346 38.2517 72 67 67
-69.4411 -16.0618 38.4087 67 67 67
-53.8517 -20.9893 39.1979 59 59 64
-52.0914 -20.9432 39.165 59 60 64
-48.6221 -21.2102 39.1726 57 56 59
-27.9604 -23.7688 39.414 62 61 64
-24.631 -24.7495 39.5681 80 25 45
-22.1941 -25.7499 39.7381 101 28 53
-21.2347 -25.3727 39.6488 91 29 49
-20.4485 -25.8244 39.7298 80 29 46
-5.10526 -26.3296 39.6265 48 29 39
-4.30015 -26.6631 39.6833 56 27 38
-3.40922 -26.6413 39.6669 80 23 41
-2.48879 -26.5011 39.6262 114 25 50
-1.16542 -26.5276 39.6138 125 28 52
-0.332162 -26.7427 39.6462 114 27 50
1.73432 -27.3392 39.7394 114 23 54
2.56617 -27.554 39.7717 133 26 56
3.82849 -27.8168 39.8081 137 27 52
6.69376 -27.0426 39.6129 137 30 56
7.15678 -26.9726 39.5924 135 30 55
24.8452 -26.0104 39.1606 64 62 67
26.1836 -26.037 39.148 63 60 63
42.8063 -26.1665 38.9515 60 58 56
43.7176 -26.1444 38.9348 61 59 57
44.6292 -26.1223 38.9182 61 60 57
46.6572 -25.4779 38.7605 59 57 55
47.6121 -25.3355 38.7188 59 56 55
48.568 -25.1928 38.6771 58 53 54
49.4419 -25.2908 38.6852 58 51 53
50.6278 -25.7981 38.7721 60 54 57
52.6428 -26.5225 38.8919 57 50 48
55.6449 -25.7358 38.6923 52 44 44
56.6484 -25.4729 38.6256 53 43 44
57.1291 -25.4015 38.6047 52 45 43
-71.3609 -13.6224 37.5021 100 88 77
-70.2352 -15.3568 37.8397 72 64 66
-56.0373 -20.9875 38.7932 60 59 65
-55.1239 -20.7251 38.7275 58 56 62
-54.2614 -20.8217 38.7355 56 55 60
-53.4165 -21.038 38.7681 60 59 65
-52.0516 -20.704 38.6818 59 58 62
-51.1705 -20.6809 38.6652 56 55 59
-49.4994 -21.2336 38.7551 60 59 65
-28.3179 -23.3633 38.9025 62 61 67
-23.814 -25.0836 39.1915 95 27 48
4.26333 -27.8655 39.3785 127 32 54
10.5042 -26.1248 38.9403 81 42 58
11.9975 -25.5557 38.8045 71 68 73
24.7783 -26.2493 38.7732 65 64 66
25.7176 -26.1081 38.7318 65 62 63
26.6219 -26.086 38.7151 62 59 61
27.4182 -26.4219 38.7726 63 60 65
28.8297 -26.21 38.7105 64 60 61
45.1497 -25.9317 38.4338 59 58 54
59.8029 -24.3195 37.9083 47 42 42
61.8239 -23.7895 37.7732 48 39 41
62.7024 -23.8879 37.7814 47 39 41
63.5361 -24.1076 37.8148 50 42 44
64.6851 -23.478 37.6713 54 46 48
65.7463 -23.0903 37.5781 59 50 50
66.232 -23.0179 37.5568 61 51 52
66.718 -22.9455 37.5356 64 55 53
67.2042 -22.8731 37.5143 62 60 66
67.9932 -23.2153 37.5732 85 90 90
68.92 -23.1922 37.556 174 176 150
69.6616 -23.6557 37.6403 209 194 158
70.6349 -23.5113 37.5978 210 190 156
-71.0175 -14.528 37.2441 92 78 74
-69.8667 -16.014 37.5319 68 61 68
-68.1892 -16.6937 37.6479 69 64 72
-56.9454 -21.2499 38.4255 60 59 65
-50.7349 -20.7296 38.2349 56 55 61
-50.3398 -21.0176 38.2883 58 56 64
-27.9758 -23.8885 38.5708 65 62 67
-27.1605 -24.223 38.628 66 58 61
-26.3223 -24.4383 38.6606 68 45 53
-25.4845 -24.6537 38.6932 67 30 44
-23.3794 -25.1322 38.7623 99 29 52
-22.5183 -25.2287 38.7703 103 27 54
-21.2515 -25.4919 38.8068 96 29 50
-4.32084 -26.7821 38.8404 47 28 38
-3.4301 -26.7604 38.8238 52 27 39
-2.5099 -26.6203 38.7827 68 26 43
-1.18683 -26.6468 38.7702 100 30 50
-0.324172 -26.7435 38.7782 107 29 51
1.74231 -27.3399 38.8719 106 25 48
2.60438 -27.4365 38.8799 120 29 53
3.40563 -27.7693 38.937 119 32 58
4.821 -27.4417 38.8509 104 34 51
5.80732 -27.065 38.7606 99 34 53
7.6909 -26.6659 38.6535 103 31 51
8.61844 -26.5254 38.6122 120 34 57
9.54683 -26.3848 38.5709 102 28 48
23.9143 -26.1525 38.3284 65 64 66
45.7111 -25.621 37.9239 60 58 56
46.7874 -25.118 37.8066 62 60 58
47.7021 -25.0956 37.7896 59 54 55
49.4914 -25.1711 37.7807 59 51 53
50.6359 -25.7989 37.8933 58 49 51
56.6134 -25.594 37.7703 50 42 45
57.618 -25.3308 37.703 46 40 41
-59.4606 -20.4822 37.8691 62 65 69
-58.2004 -20.8664 37.9306 62 63 67
-56.4771 -21.0595 37.9467 60 58 63
-55.0987 -20.606 37.8349 57 56 59
-54.236 -20.7027 37.8429 57 56 59
-53.4085 -21.0387 37.9005 59 58 63
-52.5107 -20.896 37.8589 60 59 62
-51.1444 -20.5617 37.7717 57 56 62
-50.2993 -20.7783 37.8046 58 57 63
-49.436 -20.875 37.8126 57 56 59
-24.6431 -24.8692 38.2924 77 26 48
-24.2365 -25.0361 38.3211 87 29 50
-21.3714 -26.0838 38.4967 98 28 51
-20.8917 -25.8956 38.4515 95 27 48
-5.12177 -26.4492 38.3494 52 25 39
6.33627 -26.7583 38.2561 97 27 49
11.973 -25.6756 37.9572 71 66 72
26.594 -26.2061 37.866 64 57 64
27.4262 -26.4227 37.8991 64 58 64
42.7389 -26.4069 37.6865 56 54 52
43.6897 -26.2652 37.6445 60 58 56
44.6414 -26.1234 37.6024 58 55 57
48.1431 -25.145 37.354 59 52 53
61.127 -24.4677 37.0377 48 41 39
62.6213 -24.131 36.9482 47 40 38
62.971 -24.4224 37.0032 46 40 39
65.7544 -23.091 36.6922 59 49 50
68.5338 -23.0219 36.6401 134 142 137
-70.2785 -15.8446 36.6299 70 65 65
-69.5091 -16.7912 36.8141 66 65 68
-68.2383 -17.179 36.8764 69 68 71
-53.3694 -20.7997 37.4169 58 57 61
-28.3989 -23.8409 37.6991 63 60 65
-27.5835 -24.1754 37.7567 65 58 65
-26.3143 -24.439 37.7935 66 47 51
-25.4765 -24.6544 37.8263 66 31 44
-23.3958 -25.2515 37.9205 99 29 49
-22.5349 -25.3479 37.9285 109 29 52
-4.22683 -26.4277 37.8988 58 28 41
-3.39325 -26.6427 37.9316 56 29 40
-2.47281 -26.5025 37.8901 57 28 37
-1.12002 -26.4105 37.8525 76 30 45
-0.286591 -26.6257 37.8854 91 28 47
5.4146 -26.8989 37.8631 112 25 47
6.40258 -26.5214 37.7718 116 27 51
7.76184 -26.4293 37.7342 105 25 47
8.65814 -26.4074 37.7174 122 32 52
9.58675 -26.2667 37.6756 119 30 50
10.5484 -26.0068 37.6089 94 37 56
45.0813 -26.1726 37.1678 58 55 57
48.5841 -25.1943 36.9183 59 50 55
60.6042 -24.6607 36.6431 48 40 41
61.0869 -24.589 36.6217 47 40 39
63.3244 -24.7138 36.6166 48 42 40
66.1987 -23.1407 36.2534 61 51 51
66.8217 -22.7029 36.1547 62 54 52
67.2164 -22.8742 36.1845 61 59 64
67.1531 -24.2601 36.4706 63 65 75
-71.1148 -15.5044 36.1347 87 79 67
-56.4185 -20.7013 37.0047 61 60 63
-53.3302 -20.5604 36.9329 58 55 60
-52.4138 -20.2974 36.8658 58 56 55
-51.5141 -20.154 36.8238 58 55 56
-50.273 -20.6591 36.9109 59 58 60
-24.6591 -24.9886 37.4506 74 27 42
-24.2527 -25.1554 37.4794 82 28 44
-21.2891 -25.7298 37.557 104 25 50
-20.8091 -25.5412 37.5114 99 25 50
-5.02826 -26.0944 37.4071 68 23 40
1.38315 -27.0562 37.517 103 26 48
2.61636 -27.4376 37.5787 103 25 47
3.4176 -27.7704 37.6364 106 23 43
10.5846 -25.8881 37.1483 101 37 58
46.2002 -25.551 36.5853 60 55 56
47.0324 -25.7688 36.6188 56 50 51
49.7333 -25.8222 36.5924 57 47 48
51.7905 -26.4265 36.6888 51 43 42
52.7051 -26.4044 36.6716 51 44 45
60.8701 -25.1931 36.3082 47 40 39
64.4308 -24.2075 36.0553 55 48 46
65.7171 -23.2134 35.8321 60 51 50
68.9363 -23.1937 35.7834 183 181 168
-69.501 -16.7919 35.9425 70 67 69
-68.216 -17.0586 35.9799 67 68 72
-59.481 -20.7226 36.618 63 66 72
-58.2049 -20.9871 36.6551 62 62 70
-55.8983 -20.1507 36.4495 60 59 65
-29.2301 -23.626 36.7984 64 58 62
-28.3444 -23.6035 36.7814 62 56 59
-27.5755 -24.1762 36.8895 64 57 61
-26.3063 -24.4398 36.9265 66 41 49
-25.4924 -24.7738 36.9844 67 30 44
-3.29857 -26.2881 36.989 87 24 43
-2.43573 -26.3848 36.9971 92 22 43
5.51539 -26.544 36.9192 133 26 50
6.41058 -26.5221 36.9022 135 29 51
7.80135 -26.3112 36.8391 131 26 50
8.66615 -26.4081 36.8471 133 30 50
9.65863 -26.0296 36.7548 129 33 50
10.6529 -25.6503 36.6623 107 41 60
44.6535 -26.1245 36.2866 59 55 52
45.0893 -26.1733 36.2907 58 54 51
45.7273 -25.6225 36.1676 59 55 53
60.6979 -25.6755 35.9698 47 40 38
62.4552 -24.6162 35.7256 46 39 37
63.6368 -25.1261 35.8149 51 43 42
66.2068 -23.1414 35.3675 61 54 52
66.8298 -22.7036 35.268 62 55 53
67.2246 -22.8749 35.298 60 61 65
68.7308 -22.5353 35.2066 138 144 141
-71.1204 -15.6268 35.2868 89 79 68
-70.714 -15.9186 35.3419 78 73 64
-70.308 -16.2101 35.3969 69 63 58
-57.3228 -20.9643 36.2045 61 62 67
-52.3879 -20.1781 35.9716 58 58 58
-49.8884 -21.0677 36.1217 59 56 61
-23.3838 -25.2526 36.6211 97 28 53
-22.4984 -25.2305 36.6041 109 30 58
-21.2068 -25.3752 36.6161 107 26 53
-4.58884 -26.1434 36.5429 92 24 47
-1.59818 -26.6003 36.596 105 23 49
-0.70603 -26.5785 36.579 99 25 50
0.469167 -27.1968 36.6912 102 23 48
1.76227 -27.3417 36.7033 113 23 49
2.62434 -27.4383 36.7113 116 22 49
3.91744 -27.5832 36.7233 131 26 56
44.6173 -26.2446 35.8735 58 52 49
46.5228 -25.9606 35.7877 59 52 51
48.9095 -25.605 35.6801 57 45 45
49.7414 -25.8229 35.7138 53 44 43
51.8404 -26.3074 35.7852 52 43 40
61.5376 -24.6392 35.3019 46 39 37
64.4389 -24.2082 35.1714 54 45 47
68.9906 -23.0727 34.8711 184 179 163
-67.4432 -18.0023 35.2948 66 65 68
-53.7322 -20.3932 35.6009 57 59 57
-51.9341 -20.1067 35.5156 56 57 56
-29.1991 -23.5076 35.9053 62 59 60
-28.3365 -23.6042 35.9134 60 55 57
-24.6231 -24.871 36.1257 73 28 44
-24.2166 -25.0379 36.1548 78 28 48
-20.7224 -25.1867 36.1366 107 27 50
4.01307 -27.2289 36.2141 134 27 56
6.97586 -26.0962 35.9356 142 31 55
7.84087 -26.1931 35.9436 139 30 53
8.73759 -26.1712 35.9263 136 30 53
46.4862 -26.0809 35.3744 57 51 48
47.3991 -26.0587 35.3569 58 49 47
50.182 -25.8722 35.2786 53 44 43
62.5079 -24.496 34.8169 47 39 37
63.6897 -25.006 34.9068 51 43 41
65.1081 -23.6514 34.6036 57 47 46
66.215 -23.1422 34.4816 63 55 53
66.838 -22.7044 34.3813 64 57 55
67.2328 -22.8756 34.4115 62 63 64
68.6465 -22.78 34.3716 140 146 138
-71.0987 -15.5058 34.3879 89 77 66
