ply
format ascii 1.0
element vertex 1292
property float x
property float y
property float z
property uchar red
property uchar green
property uchar blue
end_header
-37.3265 16.9214 44.558 56 97 150
-21.6674 34.2363 43.9125 49 80 136
-39.3387 9.23141 43.8355 186 208 213
-20.2635 33.848 43.3574 52 83 138
-37.6785 14.7499 43.601 122 150 186
-5.00484 41.0821 42.155 140 160 178
-4.59512 41.1229 41.704 140 158 176
-5.50802 41.2101 41.7826 141 161 180
-20.1336 34.7521 42.5606 52 83 135
-38.0135 12.419 42.1965 188 209 215
-18.3403 35.9125 41.6479 121 142 174
-20.2207 34.9235 41.7381 52 86 138
-35.502 17.8943 41.9063 49 88 147
-38.0047 12.2482 41.3239 197 213 223
-39.5515 9.67508 41.2863 206 224 229
-36.4828 18.1855 41.1504 86 123 160
-38.2579 11.4467 40.8626 200 218 228
-38.8944 10.489 40.853 208 223 233
-39.5918 9.76883 40.8637 201 215 221
-34.3736 20.0433 40.6715 47 86 140
-35.0393 19.1968 40.2447 49 90 153
-38.9156 10.437 39.9883 208 213 213
-37.4715 18.4501 39.9696 138 167 202
-38.2597 11.2496 39.5566 210 222 224
-39.2003 9.75162 39.5348 170 179 178
-19.8998 34.9473 39.1936 61 90 152
-33.0778 21.4626 38.956 49 87 147
-38.5841 10.659 38.6813 204 212 217
-39.7341 9.99803 38.7323 142 161 173
-26.3747 31.662 38.2498 49 86 144
-37.7232 17.4701 38.2186 192 218 238
-38.4553 10.0088 37.7628 193 203 208
-39.6959 9.70653 37.846 140 165 164
-14.7883 37.967 37.2949 86 96 127
-22.8078 32.7721 37.6069 55 91 157
-35.1933 19.3911 37.7133 94 138 172
-36.687 18.4456 37.773 153 171 195
-24.3836 32.155 37.2761 53 91 148
-26.3954 31.6114 37.4079 51 90 152
-32.2495 24.5957 37.4066 51 91 150
-37.3851 17.7137 37.354 155 178 197
-39.6577 9.4148 36.9589 144 167 190
-30.3195 26.996 36.9912 50 90 151
-33.4675 22.6013 36.9443 52 91 148
-36.3193 18.5725 36.8984 151 179 205
-37.0366 17.983 36.9172 160 187 207
-39.8838 8.4873 36.48 174 203 210
-40.1594 7.82466 36.456 179 204 207
-27.9843 29.4474 36.5471 54 90 155
-31.3298 25.873 36.5742 52 89 153
-38.763 12.7072 36.2569 162 167 183
-20.748 34.3935 35.8674 57 92 155
-40.0617 7.28974 35.5432 192 208 211
-30.1217 27.6622 35.7573 53 87 143
-31.0583 26.3396 35.7403 54 90 150
-35.0698 20.2522 35.6364 128 151 174
-38.0284 14.8481 35.4924 182 194 190
-38.6608 13.9 35.4769 152 159 152
-38.8139 12.7739 35.407 139 146 147
-39.2468 9.25139 35.1846 142 165 180
-39.7669 7.80686 35.1228 189 205 222
-40.408 6.84065 35.1067 177 187 207
-37.5278 16.2375 35.1244 188 203 215
-37.7083 15.2368 35.0655 195 202 205
-39.6513 9.04462 34.7722 155 176 196
-20.9112 34.7617 34.65 56 95 157
-32.7898 24.6081 34.9158 100 142 174
-35.0907 20.2009 34.7838 127 147 182
-37.2685 16.8587 34.7213 163 178 207
-38.3804 14.3817 34.6314 163 161 168
-38.8351 12.7222 34.546 117 119 138
-39.7584 7.63402 34.2435 171 187 215
-40.0639 7.09059 34.2292 172 181 209
-40.3402 6.42534 34.2031 160 169 206
-5.44101 41.2085 33.3746 138 158 176
-37.489 15.9515 34.2446 171 186 219
-38.6627 13.7044 34.1761 132 144 178
-39.5235 8.39148 33.8477 128 145 174
-40.2616 6.03554 33.7331 158 167 197
-33.5711 22.5372 33.9797 175 192 213
-35.142 20.2654 33.9428 139 164 178
-37.7698 15.2769 33.7899 184 191 228
-38.4015 14.33 33.7725 164 176 213
-39.4148 7.88359 33.367 128 139 165
3.92674 41.0084 31.6986 56 70 87
-16.8368 36.9476 33.204 80 95 107
-31.7569 25.4041 33.6185 182 208 213
-36.5815 17.3725 33.42 131 150 177
-36.9106 16.9602 33.417 140 154 183
-38.654 13.5345 33.3047 179 197 221
-38.7476 12.1698 33.2073 181 201 212
-39.7009 7.19351 32.9059 125 135 151
-40.6988 2.2628 32.6119 143 174 193
-37.7909 15.2253 32.932 144 155 177
-38.4822 14.514 32.9373 152 178 201
-39.9577 6.38107 32.432 117 131 155
-40.2044 5.59292 32.3921 126 146 180
-40.4814 4.92474 32.3643 124 155 191
-39.8545 -12.4936 30.9489 134 151 169
-16.8235 36.7867 32.3521 90 105 110
-25.4242 32.0833 32.7409 187 213 225
-31.1 26.0479 32.7664 184 205 219
-35.1734 20.1885 32.6642 151 163 191
-36.6325 17.4378 32.5763 128 145 168
-36.9316 16.9087 32.561 117 130 152
-38.7941 13.9552 32.4926 183 213 231
-40.2257 5.54057 31.5217 98 109 138
-40.473 4.75057 31.4808 111 138 175
-40.5421 3.22504 31.3656 133 164 193
-40.88 2.79763 31.3615 149 181 184
-38.5435 14.5544 31.6616 139 174 198
-39.2886 7.02856 31.1237 208 214 219
-39.654 6.72627 31.132 180 188 198
-40.0493 6.54489 31.1526 137 145 171
-40.7716 2.28041 30.8745 165 195 203
-11.0497 39.1222 30.7684 144 168 192
-12.7884 39.0801 30.9203 140 162 183
-36.6038 17.127 31.2688 184 186 205
-36.9331 16.7145 31.2648 139 145 165
-37.5925 15.8884 31.2568 108 130 157
-38.624 14.7382 30.8279 146 180 202
-39.3099 6.9763 30.2549 208 222 223
-40.1003 6.61361 30.2961 178 206 211
-40.3768 5.9476 30.2665 145 178 186
-29.9553 27.8727 30.7033 168 185 203
-31.121 25.8069 30.6379 184 207 224
-32.7098 23.6673 30.6044 169 188 211
-35.2257 20.0603 30.5333 152 167 178
-37.9735 15.5406 30.4078 117 143 174
-39.7158 6.76883 29.8411 200 222 225
-40.4766 6.28509 29.8697 177 204 214
-30.8083 26.1854 30.2189 176 198 220
-38.5071 8.91406 29.4772 191 220 231
-19.0077 36.3958 29.5842 177 191 217
-31.2037 25.9833 29.8158 176 203 220
-32.1434 24.656 29.7896 174 202 220
-35.0711 20.9957 29.7478 132 147 180
-36.6177 18.6011 29.687 205 224 227
-38.6959 14.7527 29.1247 138 180 214
-39.3825 6.99272 28.5302 203 223 225
-40.5382 6.32775 28.5791 206 220 221
-3.91158 39.8674 27.6652 120 143 152
-38.6172 14.3737 28.6576 139 178 216
-39.4529 7.2083 28.122 202 221 229
-40.4033 -12.8211 26.4985 131 147 164
-28.2126 29.0778 28.5424 190 209 232
-29.2388 28.0983 28.5521 178 195 214
-36.6791 18.6403 28.4195 213 224 236
-37.7259 15.9425 28.2831 155 145 178
-40.4315 7.54409 27.8078 208 222 228
-37.7364 15.9167 27.8548 132 127 156
-38.6086 14.2042 27.7863 140 179 216
-39.3485 8.42207 27.3522 185 210 236
-40.6787 8.48089 27.4797 207 221 229
-38.9503 13.7633 27.3513 141 180 223
-29.2699 28.0221 27.2854 202 215 226
-37.0081 16.3399 26.9707 190 189 210
-39.3219 13.44 26.929 146 185 220
-39.727 9.80959 26.646 172 201 223
-40.7 8.42883 26.6142 200 214 225
-40.9169 7.52605 26.5546 205 220 226
-37.9189 14.7207 26.4844 131 146 173
-38.9417 13.5935 26.4791 155 184 224
-39.4867 12.2878 26.4135 152 182 218
-39.945 10.6198 26.3077 173 195 203
-40.4458 9.0374 25.7823 170 164 175
-29.3323 28.0588 26.0318 197 211 220
-33.3214 21.9989 25.857 196 215 222
-37.8802 14.4335 25.5993 168 169 179
-38.6018 13.8392 25.6131 136 140 183
-39.4782 12.1174 25.5394 165 166 203
-39.6923 11.2245 25.4787 186 178 209
-40.2996 10.1491 25.4382 178 162 195
-40.8792 8.95085 25.3841 180 176 205
-37.0201 16.1197 25.2445 192 204 214
-32.4283 23.3981 25.0537 192 210 220
-37.2404 15.2109 24.7547 211 200 207
-39.2858 12.9562 24.7404 200 205 207
-40.4682 10.6937 24.6438 176 167 170
-29.7786 27.9193 24.7988 198 209 223
-30.9743 25.9681 24.7311 166 186 187
-34.3612 20.813 24.574 188 204 214
-35.3721 19.7014 24.5666 197 213 220
-36.5331 17.4778 24.4704 197 213 216
-39.4803 11.921 24.2344 205 196 189
-33.75 21.7191 24.1762 188 204 211
-37.3215 15.3943 23.9247 201 187 178
-37.6217 14.8626 23.9035 176 159 151
-39.7642 11.2399 23.7687 187 156 152
-40.5188 10.761 23.7956 190 164 144
-31.9651 24.7041 23.8632 176 199 210
-33.7604 21.6935 23.751 186 202 211
-35.393 19.6502 23.7142 167 191 197
-37.0922 16.1339 23.5452 222 215 198
-36.6548 17.7504 23.23 207 223 230
-39.815 11.307 22.921 174 135 157
-40.54 10.7092 22.9336 189 145 164
-39.5076 -11.8346 20.6961 167 157 166
-31.6005 24.83 22.9959 163 179 192
-33.7507 21.5272 22.8865 171 179 203
-34.403 20.7106 22.8711 175 191 199
-35.4139 19.5989 22.8619 164 185 195
-36.6352 17.6082 22.7888 207 221 227
-17.3076 36.9529 22.3645 203 211 215
-32.7849 22.7237 22.4849 189 212 222
-37.2436 16.5249 22.3173 213 220 217
-37.4834 15.7606 22.2668 213 211 218
-37.794 15.2039 21.8159 206 213 214
-38.6073 13.2523 21.7052 201 178 216
-38.9389 12.8363 21.6968 181 154 195
-40.5423 10.5122 21.6263 184 156 171
-22.1269 34.0713 21.714 195 213 225
-31.1399 26.1306 21.8119 190 208 214
-33.8126 21.5656 21.6247 199 218 226
-34.7913 20.3405 21.5999 183 204 213
-36.8754 16.6521 21.4414 192 209 205
-38.0453 14.411 21.3357 211 207 198
-16.9229 36.9421 21.0718 205 212 222
-30.8586 26.6218 21.4116 204 216 224
-38.5986 13.0824 20.8312 199 162 192
-39.8382 11.0585 20.7524 203 190 227
-40.5634 10.4603 20.7641 193 184 214
-15.6108 38.2774 20.658 176 192 204
-16.7978 36.4754 20.5951 202 215 225
-27.0202 31.4066 21.0905 199 213 217
-32.6861 23.7152 20.8806 186 209 219
-34.9032 20.6358 20.7916 205 218 228
-36.8077 17.9457 20.7106 209 220 196
-38.0961 14.4771 20.4922 192 144 177
-38.5794 12.9382 20.3867 187 136 190
-27.0622 31.493 20.6845 196 211 217
-30.5571 26.9738 20.5752 207 220 227
-33.9659 21.9491 20.407 209 224 238
-38.8621 12.2588 19.9181 186 161 189
-39.4674 11.1865 19.8702 193 182 202
-15.1817 38.1822 19.7711 165 183 199
-34.6584 21.2235 19.9787 209 220 231
-34.9847 20.8154 19.9697 210 221 230
-37.6361 15.9577 19.7413 188 186 191
-39.5736 9.78742 19.3104 205 209 216
-41.1795 3.80872 18.8663 216 207 185
-37.2872 17.9232 19.4798 212 220 227
-38.1277 14.3997 19.2053 206 213 221
-38.3691 13.6311 19.1512 209 217 222
-40.9717 4.69526 18.5016 219 202 201
-27.0298 31.1938 19.3948 201 205 214
-32.7891 23.8418 19.214 193 214 229
-33.8241 22.8531 19.2154 196 217 227
-38.7109 13.1896 18.7121 217 216 214
-39.1963 11.6453 18.6024 214 204 204
-39.4398 10.8706 18.5473 213 202 204
-39.7503 8.59627 18.3458 215 207 217
-40.0036 6.06336 18.1121 220 192 186
-27.0718 31.2802 18.989 198 198 212
-34.7806 21.4921 18.7478 202 219 222
-35.4935 20.9071 18.7584 206 221 217
-38.9639 12.3925 18.2272 219 180 192
-39.6647 9.94864 18.0454 206 166 189
-31.9615 25.4606 18.4548 195 216 231
-32.5778 24.5383 18.4206 190 213 226
-32.8405 23.905 18.3812 189 211 223
-38.3709 13.4354 17.8477 231 201 191
-39.6456 9.8031 17.5984 183 112 136
-41.6776 3.76606 17.1754 192 172 152
-34.2109 22.4848 17.9479 197 214 221
-36.9098 16.1864 17.5607 196 120 113
-39.3466 12.0426 17.372 176 94 102
-39.3824 10.435 17.2079 178 95 103
-32.6292 24.6013 17.5889 199 218 228
-41.3323 4.01737 16.2995 211 194 188
-41.7284 3.83561 16.3201 195 179 162
-13.4168 37.7159 16.6205 183 192 189
-31.9926 25.3843 17.1861 206 222 234
-38.4621 13.5941 16.59 218 187 180
-39.0655 12.526 16.5378 165 106 109
-41.7391 3.80943 15.8847 197 176 165
-33.7444 23.792 16.7722 200 217 226
-34.7722 21.1341 16.5929 202 215 222
-35.1287 20.8414 16.5977 206 217 226
-41.1351 4.8769 15.5038 196 166 163
-13.8887 37.7104 15.8308 188 189 193
-31.7519 25.9641 16.3814 204 219 225
-32.7216 24.7527 16.3498 191 214 220
-36.9528 17.7797 16.0307 167 80 95
-37.0419 16.4345 15.8955 181 106 126
-33.7652 23.7411 15.9253 192 214 225
-34.3456 21.03 15.6915 205 222 230
-35.9192 18.7531 15.6057 224 192 190
-39.0971 12.4484 15.248 175 97 86
-28.5271 29.8162 15.6296 200 214 226
-36.9738 17.7283 15.1772 157 70 84
-39.4692 12.1246 14.8226 170 93 101
-41.8407 3.9485 14.1757 177 129 139
-35.5522 18.8798 14.7327 224 217 208
-41.2664 5.13673 13.8135 184 145 167
-34.051 21.3612 14.4273 199 220 232
-36.9947 17.677 14.3237 159 100 116
-37.8621 15.9745 14.2252 209 211 224
-41.6429 4.80774 13.3832 197 185 207
-28.6208 29.9645 14.3986 206 218 220
-31.0968 26.4164 14.2602 211 222 230
-38.6251 13.7674 13.6331 226 201 206
-39.0155 13.5883 13.6534 201 167 178
-39.2283 12.7002 13.5769 167 129 147
-40.2207 6.1132 12.9486 194 189 191
-41.3172 5.20578 12.961 192 190 191
-30.4319 27.0831 13.8454 214 228 232
-31.1484 26.4789 13.4315 212 222 228
-37.5343 16.1929 12.938 209 208 221
-39.5516 12.1138 12.6889 195 198 204
12.232 37.8284 9.78182 148 145 141
11.3297 37.8078 9.87335 152 146 142
-31.7117 25.3065 12.9371 198 216 218
-34.8358 20.7888 12.7512 205 220 225
-36.6784 17.8689 12.6127 196 190 214
-37.9041 15.8716 12.5143 213 219 223
-29.9753 28.3743 12.6839 213 227 227
-30.587 27.4589 12.6436 212 226 231
-31.2309 26.6546 12.6192 209 225 233
-35.233 20.5857 12.3462 209 223 225
-39.8162 11.289 11.7664 210 219 222
-40.8548 8.4193 11.5483 209 216 221
-41.5826 7.81828 11.5558 208 210 226
-16.5555 37.2881 11.8805 197 211 213
-28.7037 29.95 12.3119 213 219 227
-34.8567 20.7376 11.9009 204 221 225
-35.2435 20.5602 11.9211 208 223 225
-37.536 15.9987 11.6386 213 224 225
-39.2218 12.3342 11.3954 213 221 224
-14.2775 38.3128 11.342 198 210 210
-19.4016 36.589 11.6815 205 217 218
-23.7795 33.8272 11.823 178 193 208
-24.3172 32.6995 11.7494 204 221 226
-25.7176 31.5523 11.7643 208 219 224
-31.3133 26.83 11.8077 211 226 233
-41.6623 8.00651 10.7249 175 199 215
-29.7477 28.9239 11.4656 210 225 224
-31.8763 25.6591 11.3112 204 218 227
-32.23 25.3692 11.3148 196 213 217
-34.9986 21.1473 11.1168 204 222 230
-36.5122 18.6413 10.9856 215 223 232
-37.557 15.9472 10.7832 216 225 230
-39.3317 12.6376 10.5863 200 208 222
-40.916 8.46136 10.2688 174 203 215
-20.565 36.0142 10.9036 181 189 206
-25.0056 31.9641 10.9002 209 223 220
-31.5947 26.1503 10.9181 210 220 230
-32.6555 25.2809 10.9287 183 206 214
-41.9891 7.41349 9.82979 185 208 215
-17.0117 37.1223 10.2402 208 215 217
-23.8104 33.7516 10.5651 181 200 208
-29.1588 29.7854 10.6664 215 222 228
-31.9585 25.8352 10.4993 200 218 226
-34.9892 20.981 10.2505 204 221 228
-40.7695 11.2757 9.72355 175 200 216
-40.9078 8.28934 9.38748 183 205 219
-14.7 38.037 9.68515 206 210 216
-29.7476 28.7356 10.1864 212 224 231
-40.8784 9.87964 9.14207 192 213 220
-40.9772 8.50328 8.98994 199 213 222
-41.5583 7.30135 8.90972 210 217 225
-41.8642 6.7593 8.87819 213 219 225
-9.32699 38.9703 8.80555 199 202 201
-27.2987 30.7241 9.74257 209 218 224
-28.0006 30.1493 9.74912 214 221 230
-29.4061 28.9983 9.76223 214 225 229
-30.6595 27.2813 9.6918 214 229 234
-31.6566 26.1874 9.66812 202 218 224
-32.7172 25.3183 9.67794 178 200 220
-40.8785 11.5799 8.91521 197 216 220
5.83438 40.0373 6.89212 153 164 168
-14.4422 38.4909 8.87732 203 216 220
-18.3538 37.0723 9.12626 209 216 224
-20.2582 36.1985 9.22555 194 210 221
-31.9589 25.6456 9.21544 198 216 228
-36.6244 18.7452 8.88932 214 224 228
-37.9092 15.2884 8.61328 216 221 224
-38.2391 14.875 8.59913 215 220 224
-41.4207 8.39093 8.16399 206 210 216
-8.43987 38.8306 7.85677 179 188 199
-25.0251 31.7262 8.78236 208 219 223
-27.6702 30.3862 8.90507 213 221 223
-28.0212 30.0987 8.90816 214 221 225
-29.7786 28.6596 8.92362 209 227 228
-30.6492 27.1176 8.83151 210 225 230
-31.3858 26.6524 8.8546 208 222 229
-32.7073 25.1539 8.81613 185 206 223
-36.843 17.8449 8.38047 215 226 227
-37.4401 16.7896 8.31757 217 226 227
-18.4078 37.1319 8.30589 195 202 218
-30.9814 26.69 8.3957 207 220 227
-31.9796 25.5947 8.37058 203 221 232
-34.8062 21.6058 8.192 191 212 222
-37.96 15.3542 7.7747 211 219 220
-38.2601 14.8235 7.74276 209 217 221
-39.1925 13.345 7.66415 208 214 219
-40.4311 11.3258 7.55305 201 203 209
-41.1664 8.99835 7.35043 194 194 202
-41.3247 7.8589 7.22951 191 190 199
-8.0778 38.9556 6.99548 172 182 192
-25.4921 31.7234 7.9958 205 216 220
-30.9918 26.6646 7.97374 205 217 226
-31.6981 26.0858 7.97953 207 218 227
-32.7281 25.103 7.9711 186 204 217
-35.6442 19.7804 7.63777 210 223 225
-36.6857 18.7843 7.62896 213 219 221
-37.3116 17.8482 7.58254 212 219 222
-37.5207 16.9716 7.49834 210 215 220
-38.8127 13.4982 7.21484 205 209 219
-27.7327 30.4222 7.66103 208 214 221
-28.4974 30.0713 7.7009 211 218 228
-30.3276 27.3305 7.56337 201 220 226
-38.3406 15.0068 6.92159 196 197 207
-38.9715 14.0616 6.87413 194 195 205
-39.7217 13.5861 6.89716 187 187 196
-40.3934 11.0365 6.65753 172 178 183
-40.9712 9.84345 6.57395 168 173 178
-31.98 25.405 7.08597 197 213 218
-36.7066 18.7331 6.77734 194 197 204
-39.4898 14.3275 6.53681 174 178 187
-40.3745 10.8917 6.20946 160 162 172
-31.4068 26.4123 6.72786 186 199 209
-35.7358 19.9348 6.3967 186 189 198
-36.0626 19.526 6.38166 182 185 193
-36.9551 17.9492 6.28347 177 180 190
-37.3131 17.655 6.28602 175 179 188
-30.6803 26.8524 6.28337 175 189 198
-32.0007 25.3541 6.24092 176 186 200
-38.7319 14.6334 5.64001 149 151 169
-40.1304 9.76744 5.18607 128 130 142
-21.483 35.4728 5.936 169 171 190
-30.7526 27.053 5.89665 163 174 188
-31.1671 26.99 5.93421 163 174 189
-32.3649 25.0387 5.82083 157 168 186
-36.8863 17.549 5.37728 141 146 164
-37.2445 17.2545 5.37962 141 146 164
-37.9932 15.0825 5.18929 136 139 155
-40.5332 9.5615 4.77534 105 107 126
-37.6442 15.3527 4.75907 122 124 145
-38.7529 14.5819 4.78382 112 115 136
-31.3726 27.6162 5.19733 139 143 165
-35.1851 20.8792 4.76319 117 123 146
-36.8473 17.2648 4.48796 110 114 134
-37.1758 16.8533 4.47201 107 110 132
-40.4955 9.27055 3.87615 79 81 104
-30.493 27.4916 4.66511 116 124 147
-31.9959 26.675 4.72725 120 124 150
-32.0729 25.3661 4.56873 115 122 148
-37.6951 15.4185 3.92153 89 91 116
-38.4438 14.9439 3.94386 82 83 110
-35.9487 20.3583 3.93599 82 89 116
-32.3554 24.6841 3.67157 81 87 117
-33.2961 23.356 3.60489 78 85 115
-32.1654 25.5169 3.33778 68 75 104
-17.8619 35.8898 77.7682 39 45 76
-18.0493 35.342 77.7829 37 43 78
-24.0094 33.1709 77.6898 39 48 88
-15.3612 38.2616 76.7734 89 117 161
-19.0054 34.3374 76.5728 35 45 79
-24.0277 33.091 76.4272 35 54 91
-26.9328 29.5616 76.6055 161 194 198
-27.8739 28.6352 76.6619 166 203 212
-23.2874 33.4388 75.9639 37 49 92
-31.653 23.8888 76.0468 112 152 140
-30.7826 24.8189 74.3001 50 97 78
-36.4245 16.1271 74.6387 44 90 71
-38.8193 8.1441 74.7926 39 85 68
-35.3257 19.6993 74.1434 41 90 69
-35.3757 17.8223 74.1495 40 88 69
-38.161 9.73528 74.3215 37 82 65
-18.8979 35.6048 72.7609 41 46 78
-35.6328 17.3384 73.7386 42 87 81
-35.934 16.989 73.7562 41 89 78
-37.8473 14.1034 73.8688 38 86 68
-38.5217 9.4643 73.9122 36 84 65
-28.2368 29.0205 72.8809 44 92 85
-36.0914 16.2881 73.3392 49 96 102
-38.788 7.9513 73.4979 43 100 99
-39.0434 7.48453 73.5129 54 112 105
-18.9102 35.5515 71.9181 41 47 77
-32.4053 24.1741 72.7002 44 90 74
-35.6451 17.2845 72.8868 107 137 156
-37.714 12.7159 73.0058 76 105 81
-31.714 24.627 72.237 43 91 76
-36.2039 16.4504 72.4925 142 158 145
-37.361 14.9414 72.5589 159 191 196
-38.5903 9.49325 72.6258 36 86 69
-23.0074 33.3847 71.3134 37 50 86
-32.468 24.2262 71.8578 43 90 75
-36.0588 17.0969 72.0585 187 197 189
-38.8567 7.98069 72.209 96 140 137
-39.0622 7.40277 72.2202 148 185 162
-39.068 6.37756 72.2189 163 198 170
-19.1164 34.9241 70.6638 36 47 83
-28.2211 29.7767 71.1945 44 88 90
-35.6637 17.2037 71.609 185 202 206
-36.2162 16.3965 71.6401 157 170 161
-37.6755 14.5368 71.7228 187 209 192
-39.4302 6.10548 71.8079 135 160 134
-19.5295 34.7345 69.8442 34 48 81
-32.2892 24.7018 70.5798 44 91 74
-35.626 17.042 70.7538 89 112 118
-36.682 15.3175 70.8114 52 86 100
-37.6879 14.4828 70.8693 179 208 203
-37.6417 13.3695 70.8624 189 216 210
-39.4427 6.05089 70.9448 122 144 129
-33.0388 23.3226 70.1968 44 84 68
-36.2348 16.3156 70.3615 55 89 76
-39.2551 4.54535 70.4951 109 135 120
-39.4618 3.96236 70.5051 148 182 160
-32.5995 24.3034 69.7515 43 90 74
-35.8372 19.4041 69.926 51 84 67
-36.6444 15.155 69.9545 43 81 79
-18.6649 35.68 68.5305 55 62 99
-19.0404 34.5849 68.5476 37 50 87
-31.0088 24.8141 69.2332 50 91 74
-33.1015 23.3749 69.3546 44 83 64
-35.5439 17.7415 69.474 42 92 81
-36.1971 16.1535 69.5055 42 86 71
-37.2547 14.4265 69.5612 101 141 144
-38.5243 11.1127 69.6211 59 89 65
-13.3498 39.0341 67.7988 93 126 168
-28.2577 29.617 68.6688 45 89 93
-31.9654 24.8346 68.8698 45 92 75
-32.6622 24.3554 68.9102 44 89 73
-38.8396 9.71778 69.2031 68 112 115
-39.2117 6.40986 69.2055 122 139 115
-39.2239 4.35086 69.1933 101 129 122
-19.507 34.4982 67.7322 36 50 85
-31.224 25.1818 68.4031 48 90 73
-33.2143 23.5328 68.5166 46 84 66
-36.6629 15.074 68.6742 45 78 65
-39.5738 6.1379 68.7948 76 110 102
-28.2699 29.5637 67.8269 44 89 96
-33.0228 24.0623 68.0856 45 86 77
-35.8127 18.1984 68.2173 177 201 179
-37.1735 14.1279 68.2723 56 98 112
-38.2393 11.3842 68.3188 141 155 137
-38.8521 9.66347 68.3445 96 133 142
-39.0569 9.08836 68.353 147 183 165
-39.2364 4.29612 68.3278 95 132 122
-18.7426 35.6759 66.8495 54 60 97
-19.466 34.3419 66.8846 35 48 84
-32.6805 24.2752 67.643 42 88 73
-36.3234 15.2621 67.8003 56 91 75
-39.7359 6.41835 67.9443 63 107 99
-33.1824 23.3468 67.2443 46 82 68
-38.2019 11.2202 67.4577 160 176 181
-39.0694 9.03401 67.4937 169 190 179
-32.6424 24.1163 66.7938 43 88 73
-33.0879 23.1086 66.8129 47 82 68
-34.5821 21.3781 66.8928 195 209 200
-37.3948 13.4776 66.9985 67 112 128
-39.2553 4.21401 67.0296 97 138 132
-25.4652 31.2637 65.9776 118 147 138
-32.9467 23.7444 66.3872 45 87 79
-38.0106 11.7383 66.5932 180 218 227
-39.1494 6.0227 66.6084 62 85 70
-18.9268 35.877 65.1785 54 61 99
-32.3062 24.3025 65.9286 41 91 72
-39.1556 5.9954 66.1769 57 82 72
-39.1616 4.96638 66.166 53 101 102
-19.6029 34.4145 64.7851 36 49 85
-32.959 23.691 65.5419 44 88 81
-37.4134 13.3965 65.7163 37 85 84
-39.1619 5.9681 65.7453 52 80 71
-39.224 4.0193 65.7267 99 140 137
-18.9922 35.9262 64.3414 55 62 99
-36.756 17.9578 65.3011 39 87 69
-36.0587 15.4506 65.224 39 87 71
-39.1503 9.00875 65.3503 157 162 136
-19.7455 35.5247 63.9657 38 50 89
-19.7214 34.567 63.9517 37 51 88
-32.2741 24.1169 64.6563 50 94 67
-32.5723 23.7716 64.6717 49 92 69
-36.5185 14.3963 64.8143 45 87 67
-37.276 13.015 64.8471 33 82 91
-38.6424 10.9244 64.9115 199 220 231
-25.843 30.8918 63.8926 86 116 104
-33.222 22.1782 64.2711 53 97 95
-35.7675 18.7339 64.3956 85 128 93
-39.4738 7.57978 64.4934 51 88 81
-29.8551 26.7154 63.684 195 218 229
-36.4809 14.2335 63.9551 90 131 96
-39.0139 9.61276 64.0609 162 172 151
-39.7198 1.81638 63.9974 132 151 142
-39.9275 1.22963 64.0031 103 124 120
-19.4699 35.786 62.6884 43 51 85
-33.1839 22.0184 63.4191 78 106 101
-35.8298 18.7873 63.5515 185 214 220
-37.0919 13.5038 63.5587 49 81 67
-37.2946 12.9338 63.564 39 80 85
-39.2747 9.12122 63.6422 90 114 92
-26.5938 29.472 62.6589 49 97 83
-39.0207 10.5729 63.218 156 170 140
-36.2975 14.7209 62.6687 119 142 119
-37.1542 13.5588 62.709 44 84 68
-39.3866 9.28792 62.794 53 91 70
-22.0218 34.2415 61.5781 39 53 93
-39.1324 10.7386 62.3717 73 100 86
-39.7513 1.67912 61.8273 40 80 64
-23.8721 33.2018 60.8489 37 59 93
-37.2228 13.5867 61.4326 38 85 65
-39.0455 10.4645 61.5041 36 82 63
-39.2501 9.89105 61.5081 35 81 63
-16.5699 37.2288 59.9862 96 127 182
-22.0401 34.1617 60.3167 38 52 92
-26.6244 29.3387 60.5509 47 94 78
-30.2889 25.4198 60.737 43 89 74
-31.0807 24.1735 60.7697 43 89 73
11.7494 38.798 57.5715 52 64 78
-39.8203 1.71011 60.5311 36 68 58
-23.752 33.7716 59.5912 41 57 98
-28.5693 27.5372 59.8114 42 79 72
-39.8696 2.83385 60.1236 35 66 58
-16.5882 37.149 58.7234 116 143 182
-32.1002 24.2468 59.5764 41 75 66
-23.6601 33.5129 58.7393 42 59 105
-29.0731 26.5862 58.9841 37 72 71
-39.8822 2.77906 59.2573 40 92 87
-39.9394 1.85453 59.2415 43 97 90
-32.612 24.2699 58.7699 48 80 58
-38.9675 3.82676 58.7806 75 130 166
-39.1743 4.24947 58.3729 163 181 174
-40.0947 3.17567 58.4161 167 183 165
-20.4606 35.3464 56.8651 41 59 100
-39.9361 -1.50253 57.4257 111 148 177
-39.2217 -10.7036 57.1491 138 153 176
-19.8024 34.9431 56.3855 43 60 106
-39.9927 -1.41554 56.9964 111 148 182
-28.3325 28.6367 56.4484 60 74 113
-38.4618 9.74848 56.7308 43 57 94
-38.9705 8.81968 56.7455 42 58 106
-39.6359 7.20109 56.7544 42 56 101
-25.1247 31.5161 55.8591 42 63 106
-37.7989 13.3472 56.3461 41 63 100
-37.9521 12.6686 56.3399 39 61 98
-39.0265 8.90309 56.3228 38 59 119
-39.7467 -0.994465 56.1177 114 145 176
-37.8013 14.3236 55.9459 57 80 106
-38.0081 12.7507 55.9193 48 72 101
-39.3371 8.52178 55.9072 58 77 130
-39.6484 7.14666 55.894 67 80 127
-39.9607 5.76662 55.8807 49 65 106
-21.5522 35.4536 54.8519 39 60 103
-21.7726 34.0545 54.8303 40 59 106
-26.3324 31.0575 55.0986 43 64 105
-37.7615 13.1842 55.4854 51 78 104
-38.7792 10.3281 55.4849 68 97 127
-38.8468 9.36943 54.6061 74 87 148
-39.3061 8.32954 54.6118 65 82 147
-37.6805 12.885 54.19 63 85 110
-38.7481 10.1368 54.1923 57 75 125
-39.4678 7.61512 54.1741 60 75 133
-35.8709 18.9461 53.8038 65 82 129
-36.0722 17.3918 53.7726 60 81 123
-37.2287 14.8892 53.7881 59 76 119
-37.8897 12.2878 53.7615 57 77 112
-39.3683 8.38596 53.76 52 69 116
-39.8287 7.34407 53.7648 47 67 120
-40.1411 5.96529 53.7477 46 79 132
-21.8556 34.0243 52.7352 44 66 114
-35.4336 18.9189 52.9207 43 68 116
-35.8839 17.9015 52.9245 43 67 116
-37.9021 12.2337 52.9064 41 65 115
-21.4374 34.9607 51.8919 44 68 117
-35.5895 19.2131 52.5189 41 70 117
-39.0768 9.67501 52.491 37 66 113
-37.4184 12.0669 51.5802 40 69 118
-37.8211 11.9337 51.6084 38 69 117
-21.4556 34.8811 50.6321 46 72 123
-38.1906 10.6261 50.7385 39 70 120
-21.0689 34.9637 49.7641 46 71 125
-37.593 12.2869 49.8933 40 69 120
-37.7462 11.6064 49.8814 40 70 119
-37.6881 15.4859 49.5922 40 70 124
-38.3089 10.7646 49.4698 44 74 118
-36.8494 15.5904 48.6759 43 73 131
-38.575 10.2476 48.6171 42 85 123
-36.2035 16.1543 48.2179 44 75 130
-37.1569 15.2139 48.2622 45 73 133
-37.9663 12.9432 48.2425 42 82 147
-39.2879 9.73454 48.2297 111 159 177
-36.1097 15.9113 47.7753 43 76 128
-38.5824 11.205 47.7999 84 127 170
-39.5483 9.24397 47.8047 173 203 215
-38.2314 12.4287 47.3919 121 173 192
-38.7925 10.6061 47.3667 148 176 200
-39.0959 10.2534 47.3785 168 192 214
-17.1466 37.0657 46.1566 92 99 103
-38.1879 12.2925 46.9561 134 183 196
-38.4906 11.9409 46.9678 159 201 213
-38.8049 10.5519 46.5107 188 209 224
-39.1083 10.1992 46.5223 188 207 220
-17.2123 37.1146 45.325 83 103 118
-15.6707 37.7357 44.7972 41 52 85
-38.3555 12.5391 45.7018 130 157 175
-38.6631 11.1794 45.6704 179 192 215
-38.1587 13.0811 45.2818 144 173 196
-35.101 19.425 44.8659 49 84 145
-37.5045 15.6474 44.9114 68 111 153
-38.2145 13.1631 44.8644 166 188 208
-38.6208 12.0244 44.8501 161 183 201
-38.8306 11.427 44.4155 157 178 189
-40.2786 5.36596 44.2723 173 195 206
-40.64 5.09443 43.8622 171 193 202
-37.523 15.5667 43.636 114 142 175
-38.5352 12.7313 43.5959 176 197 208
-38.843 11.3729 43.5608 180 206 214
-40.3825 6.55884 43.4767 188 211 221
-35.2255 19.5313 43.19 51 88 150
-37.5353 15.5129 42.7857 137 175 178
-39.2695 9.16177 42.6413 206 224 229
-39.6296 7.90137 42.614 192 207 222
-40.3454 6.3932 42.6073 198 216 225
-37.0887 16.5073 42.3685 122 164 188
-40.1953 7.05438 42.1963 201 211 229
-40.5082 5.67632 42.1584 201 212 224
-34.7464 21.3413 41.9661 50 88 145
-35.5434 19.1039 41.9298 52 88 148
-37.498 15.3511 41.9256 159 185 209
-38.357 13.192 41.8988 197 218 223
-39.8969 7.38183 41.7562 200 211 226
-35.0013 20.8626 41.5441 51 88 145
-40.1583 6.88898 41.3272 191 208 220
-40.2154 5.97746 41.2873 198 213 227
-36.0046 19.0237 41.1227 54 94 140
-37.507 16.2935 41.1248 166 194 201
-39.8598 7.2165 40.8871 201 221 231
-40.4278 5.37144 40.8471 207 218 232
-14.9963 37.7916 39.701 72 106 144
-39.6044 8.67268 40.5087 193 211 224
-40.022 6.50109 40.4371 202 218 230
-35.2188 20.2235 40.2658 52 90 154
-37.82 15.8912 40.2857 185 206 227
-40.3411 5.09354 39.9654 208 218 229
-14.6075 37.875 38.8293 128 139 139
-21.5151 33.9586 39.2735 52 91 149
-36.0728 19.0502 39.8626 85 119 151
-37.42 17.9827 39.9334 122 155 173
-37.7235 16.6435 39.892 170 202 215
-37.83 14.8672 39.8094 200 221 232
-39.9281 7.24602 39.609 198 217 218
-35.032 20.7289 39.4305 54 91 149
-39.7222 8.81219 39.2436 153 176 199
-21.5273 33.9054 38.4332 57 94 155
-26.5567 29.0551 38.6506 53 88 148
-27.3026 28.6816 38.7013 53 89 148
-38.796 13.8727 38.9988 215 226 235
-40.459 5.23529 38.6946 179 198 200
-35.343 20.3293 38.5948 60 106 151
-37.9971 15.111 38.5651 211 229 240
-39.7346 8.75799 38.3867 149 167 201
-39.8405 7.96212 38.3537 169 189 208
-25.092 30.7141 37.761 54 87 146
-27.7645 28.5977 37.9008 54 93 152
-39.3378 8.86358 37.9269 142 152 177
-35.4051 20.3822 37.7599 81 126 162
-39.853 7.90785 37.4958 169 193 205
-21.8457 33.458 36.762 57 90 152
-37.5748 15.9981 36.4543 190 202 224
-39.1027 10.232 36.2721 149 176 202
-27.4602 29.6686 35.8341 54 90 148
-38.9379 13.9013 36.0424 158 164 171
-39.61 10.2919 35.8985 153 181 208
-39.8708 8.8161 35.8383 184 213 224
-39.4309 8.7842 34.9383 156 176 189
-40.3168 4.54284 34.7739 161 172 189
-34.0556 22.1354 34.7792 158 174 202
-39.5792 10.101 34.6047 116 129 153
-40.7426 3.32613 33.8827 135 157 200
-40.1292 5.04098 33.4961 153 166 171
-38.6343 11.9746 33.3465 176 201 209
-39.2452 10.2624 33.3017 130 150 172
-39.4494 9.69006 33.2867 137 152 170
-38.6466 11.9206 32.4931 201 224 228
-39.0537 10.7798 32.4622 201 226 230
-39.4123 9.52587 32.4191 201 217 217
-25.1054 32.0575 31.9755 180 196 217
-40.7412 1.0067 31.5822 175 198 211
-30.6828 26.3938 31.7624 195 212 219
-35.2918 20.5665 31.8577 154 175 180
-39.369 10.3737 31.616 213 228 238
-39.4743 9.58182 31.5755 213 227 238
-38.8686 11.2695 31.1968 208 224 234
-40.6705 4.96867 30.9704 113 153 164
-2.63729 39.7313 28.9035 118 136 148
-39.3876 9.30751 30.6951 208 226 230
-40.5027 1.39653 30.2879 198 216 224
-40.7601 0.924551 30.2834 204 221 226
-40.8659 1.12372 29.8759 210 224 226
-38.9423 10.2885 29.8611 201 219 229
-39.3505 9.14319 29.8265 208 223 233
-40.483 5.46591 29.6969 187 213 219
-40.954 3.39033 29.6062 205 225 225
-37.4686 17.1253 29.7454 196 199 221
-39.5613 8.54233 29.3808 209 222 232
-39.3692 7.08127 29.2613 206 220 230
-39.4556 10.3213 29.0647 202 223 234
-40.8501 5.1676 28.8574 212 221 225
-40.7852 0.815016 28.5516 210 224 229
-39.5048 11.4123 28.7196 189 213 239
-39.3692 9.06196 28.5422 202 220 233
-39.6232 8.59849 28.5369 207 223 233
-40.891 1.01423 28.1449 208 223 227
-37.0881 17.178 28.4415 211 216 213
-39.5174 10.3769 28.2232 192 217 245
-40.4089 5.1339 27.9507 214 225 229
-41.5022 1.30721 27.7988 211 224 227
-39.4678 11.2491 27.8536 158 192 231
-39.4742 10.2402 27.783 180 207 241
-40.8194 4.97437 27.5542 212 223 225
-39.1657 12.5783 27.4908 146 185 227
-40.2078 6.68048 27.1816 209 227 232
-37.1561 17.2048 27.1833 202 208 217
-37.9616 14.9505 27.1076 125 143 173
-40.3468 9.01912 26.937 196 217 230
-40.9801 5.25474 26.734 210 222 222
-36.912 17.6327 26.7657 214 217 232
-39.3321 11.8469 26.6066 155 190 218
-37.1683 17.1512 26.336 188 194 215
-41.042 5.31182 25.8879 205 219 220
-36.8747 17.472 25.9054 203 213 229
-40.6855 6.55059 25.5123 207 204 229
-40.6444 5.41698 25.424 203 214 225
-37.1806 17.0977 25.4887 191 209 224
-38.0418 14.9242 24.9973 178 157 174
-40.8203 9.87314 24.922 189 172 187
-40.9619 5.00724 24.5711 202 215 228
-37.3444 16.374 24.6072 221 211 230
-39.1538 13.2835 24.5719 202 213 229
-40.1674 4.21791 23.995 208 220 230
-41.2241 4.51276 24.1339 213 218 231
-17.6634 36.8896 23.5779 191 205 207
-39.123 13.0942 23.2822 206 193 187
-40.796 9.65546 23.2009 200 163 159
-22.4392 34.23 22.6501 193 209 216
-27.4806 31.3154 22.986 197 208 217
-40.5477 3.86457 22.2924 188 142 148
-41.1008 4.06836 22.3704 194 147 160
-40.7593 9.49159 22.333 189 147 149
-41.1161 3.01181 21.8594 196 142 182
-40.3616 3.36128 21.3725 186 146 181
-41.0728 2.87215 21.4138 194 151 194
-32.7062 22.9272 21.6514 188 207 228
-37.9922 14.493 21.5712 216 211 209
-40.7717 9.43758 21.4791 198 167 187
-40.98 2.61991 20.9532 195 171 197
-41.1935 2.01005 20.4981 202 203 206
-41.4296 -1.69479 20.2239 208 218 217
-35.8002 18.6461 20.8141 201 212 225
-37.1519 15.594 20.7186 206 179 160
-37.9055 14.2229 20.6924 201 155 137
-39.6224 10.8998 20.6165 201 187 207
-40.1933 8.06185 20.4493 198 199 215
-41.3957 -2.88404 19.6902 211 218 208
-41.2053 -4.39566 19.5445 212 214 202
-20.0337 34.7811 19.9149 197 207 217
-31.8884 24.9596 20.4648 191 202 220
-35.5134 18.9393 19.9623 207 221 226
-36.661 17.4443 19.9701 216 220 231
-39.2336 10.9784 19.7284 197 190 213
-39.5986 8.71391 19.5819 207 215 229
-40.1069 7.78669 19.5634 209 220 229
-40.2704 6.08058 19.4402 218 225 229
-41.1536 2.84821 19.2729 214 220 209
-30.5709 26.9344 19.6397 198 217 227
-37.7717 14.8159 19.4562 196 201 201
-38.7837 11.9812 19.3354 211 214 219
-41.0924 4.76538 18.9971 216 216 206
-20.4507 34.5659 18.6911 189 205 213
-22.3896 33.7866 18.8504 199 209 217
-36.9234 16.936 19.1138 215 223 227
-40.3739 7.26827 18.6971 221 206 218
-34.6364 20.8816 18.7612 203 219 224
-36.9296 16.9092 18.6901 220 219 231
-20.5156 34.6153 17.8671 191 205 215
-37.2851 16.6421 18.2868 232 194 201
-40.4357 7.32479 17.8554 219 172 160
-22.7534 33.4694 17.6132 201 211 219
-37.1923 16.4005 17.8329 218 137 120
-38.8031 12.877 17.7173 215 153 166
-39.2092 11.7408 17.6667 182 96 129
-39.8343 8.00467 17.4168 206 176 200
-40.4993 6.38933 17.3552 189 136 139
-22.0743 33.8918 16.7349 197 208 212
-37.2018 17.3383 17.072 163 89 128
-39.3757 11.0083 16.7733 201 142 156
-40.1504 7.59706 16.5653 214 183 200
-40.5117 6.33507 16.4972 204 160 165
-31.3125 27.2392 16.8268 214 224 236
-39.9518 8.14431 16.1635 183 150 187
-37.214 17.2847 16.2256 189 106 102
-39.4374 11.0637 15.9362 198 103 120
-40.5654 7.4106 15.745 231 199 187
-13.3294 37.7554 14.7821 139 154 176
-27.9176 29.6678 15.803 199 210 220
-40.3018 9.87312 15.5081 180 143 163
-40.1616 8.53139 15.3708 201 188 209
-40.8263 6.91924 15.3056 205 157 152
-31.2804 27.0557 15.5535 208 224 228
-33.8937 22.893 15.491 195 217 231
-38.8401 12.7156 15.1647 202 130 143
-40.6764 7.57757 14.9205 230 196 184
-21.33 34.9835 14.6575 191 201 205
-26.9951 30.5345 14.9357 202 208 216
-38.8463 12.6886 14.7392 199 131 143
-40.4203 9.02783 14.5955 209 186 204
-40.4282 8.01414 14.504 227 205 214
-33.0648 23.9764 14.6515 192 210 223
-39.2093 11.4161 14.2427 171 107 122
-38.8586 12.6348 13.8884 199 137 164
-39.5176 11.0382 13.8208 203 159 174
-40.531 9.19365 13.7735 189 158 171
-42.4124 -3.35826 12.8415 208 211 204
-26.719 30.7957 13.6744 174 186 201
-28.101 29.8453 13.7546 203 215 218
-36.652 17.8182 13.6781 162 94 74
-40.5453 8.15361 13.2532 203 197 209
-40.8488 7.80072 13.2574 202 200 198
-41.8104 1.61214 12.7983 212 214 222
-39.2278 11.3352 12.9644 187 174 196
-40.5434 9.13964 12.9196 194 198 214
-40.855 7.77366 12.8296 209 219 227
-41.7473 3.53426 12.5413 212 219 224
-26.3343 30.8773 12.8005 195 206 208
-40.607 8.20987 12.4144 209 221 225
-41.7635 2.47758 12.0152 213 218 228
-42.073 -3.19429 11.5174 201 206 219
-38.982 12.7447 12.2195 214 225 229
-41.7798 1.41753 11.4874 204 214 230
-40.4558 9.84954 11.7013 209 222 229
-40.8245 7.58208 11.5298 211 221 227
-41.8746 2.64778 11.1873 194 206 230
-42.1352 -3.13463 10.6657 173 190 205
-28.3751 29.2684 11.6475 210 217 229
-30.8381 26.7425 11.7101 211 227 231
-41.3587 4.58379 10.8811 188 205 225
-41.473 3.75413 10.3871 178 202 222
-28.0416 29.4531 10.7892 210 219 224
-30.7493 26.4809 10.8378 213 228 234
-34.7537 21.3554 10.8382 204 221 231
-40.8688 4.43825 9.95021 174 201 217
-41.6862 3.14686 9.92633 185 207 221
-41.7656 0.158914 9.64417 191 208 218
-22.4327 33.9799 10.1125 166 186 199
-40.2156 5.01017 9.49647 175 206 223
-41.1802 4.05548 9.52374 186 212 220
-41.9981 2.7634 9.49938 198 214 220
-8.07343 38.9581 8.3776 187 187 187
-22.784 33.716 9.71388 196 206 212
-28.6433 28.7174 9.95775 213 223 231
-30.7615 26.4278 9.9981 213 225 234
-35.0642 21.9361 10.0958 198 216 227
-36.61 16.3719 9.73952 218 225 230
-17.5577 37.1496 8.97793 197 206 209
-23.6702 32.6692 9.30491 204 209 215
-29.9315 27.5318 9.58516 215 228 235
-40.3271 5.17885 8.67179 206 222 230
-41.9019 3.51339 8.70503 211 222 226
-41.7743 1.11363 8.44954 208 214 215
-41.7844 0.0768927 8.34741 209 214 211
-23.3828 32.983 8.88285 206 209 217
-39.9853 11.588 8.84423 201 222 227
-41.3469 4.30914 8.28643 217 225 233
-41.8896 0.276112 7.95047 205 209 207
-28.6616 28.6378 8.6999 212 225 225
-35.4296 21.6175 8.85341 204 219 226
-41.3066 9.36939 8.365 209 220 220
-40.2901 5.01303 7.79513 211 219 221
-41.9143 3.459 7.84518 212 213 221
-38.9944 12.3669 7.94968 212 219 228
-39.2466 11.9079 7.93528 211 219 227
-41.3128 9.34243 7.93871 206 212 217
-22.0716 33.9561 7.56342 194 209 211
-23.9882 32.2229 7.6321 197 209 215
-28.521 28.2736 7.80986 208 219 228
-8.45809 38.5587 5.86655 151 160 166
-9.26489 38.2845 5.94227 158 166 174
-40.2137 10.9117 7.11016 189 192 204
-40.72 9.99118 7.08056 187 189 203
-21.5501 34.6848 6.738 185 191 202
-22.0837 33.9031 6.72596 187 199 207
-23.4651 32.9531 6.80609 185 199 207
-34.9579 21.4329 7.09774 189 207 216
-36.4526 16.7469 6.80512 207 207 219
-37.6062 14.2509 6.69549 194 200 214
-41.0287 9.61299 6.65715 172 171 187
-37.1574 16.2397 6.42209 185 186 202
-37.3583 15.6767 6.38942 185 186 203
-23.1319 33.1376 5.94859 165 173 188
-34.9204 21.2738 6.2379 163 175 192
-36.8142 16.4531 5.97828 173 174 192
-41.9005 8.39435 5.79439 127 130 148
-35.9696 19.5486 5.77349 159 165 184
-41.0473 9.53212 5.37858 119 122 141
-32.2184 26.1518 5.56387 149 157 175
-34.9326 21.2206 5.39546 137 144 169
-37.3242 16.4815 5.20516 135 138 160
-41.356 9.15369 4.9547 97 100 123
-41.9617 8.45036 4.95934 93 95 118
-30.4378 26.243 4.92217 135 142 166
-36.9813 16.6948 4.76164 118 121 147
-32.2806 26.2029 4.7433 118 125 147
-34.7965 21.8288 4.60463 106 111 143
-35.2921 19.9471 4.46751 109 111 141
-41.7788 7.95628 4.03321 65 69 96
-34.7021 20.6111 4.04147 91 97 131
-19.6766 34.4591 77.8441 38 46 84
-22.091 34.792 77.5614 38 46 84
-24.1259 33.1549 75.1635 43 66 100
-22.7237 34.0455 74.654 39 49 85
-24.0655 33.0202 74.3181 44 69 104
-22.3638 34.2072 73.789 38 47 84
-34.5418 20.5267 74.5628 50 97 78
-35.7151 16.4444 74.6368 48 95 77
-35.0639 18.3729 74.1726 43 92 73
-38.9675 6.46617 74.4144 41 87 69
-39.203 6.0669 74.4292 41 87 69
-22.8142 34.0482 72.9757 39 50 87
-35.3693 18.0532 73.769 43 94 82
-37.8735 10.0123 73.9206 41 90 74
-39.0407 6.54206 73.9916 43 90 74
-37.7212 11.9536 73.4882 43 88 70
-39.0085 5.72689 73.5604 47 96 97
-35.4882 18.8734 72.933 104 137 136
-39.0186 5.68219 72.705 122 150 130
-22.6108 34.3252 70.8585 37 48 83
-35.5306 18.1319 71.6655 191 206 212
-39.3326 5.33628 71.8689 109 138 123
-39.5735 4.91408 71.4554 140 178 186
-32.6011 23.2641 70.6458 45 89 76
-35.5406 18.0878 70.8204 103 121 127
-22.3268 34.5554 69.5778 38 50 86
-39.2483 5.86586 70.5824 109 131 125
-32.5176 23.7958 69.8006 44 91 75
-33.9709 21.5498 69.8877 166 197 210
-35.6187 18.1382 69.9808 47 91 76
-39.0551 7.03441 70.1489 190 194 177
-34.2753 21.2311 69.4853 184 214 227
-39.3265 5.91957 69.733 84 115 113
-32.4589 23.6588 68.9531 45 91 75
-33.9175 21.3902 68.6178 158 190 205
-34.217 21.0933 68.6368 183 211 224
-36.1259 16.6102 68.7367 74 108 76
-39.5041 5.37699 68.8863 80 118 122
-36.0749 17.9416 68.3217 163 195 171
-39.0443 7.63733 68.4453 185 200 181
-32.2433 23.9822 67.6768 43 91 76
-34.2269 21.0493 67.7938 177 209 221
-35.6841 18.7973 67.8788 188 209 219
-36.2439 17.4328 67.9068 158 181 155
-39.3574 7.29243 67.6116 116 129 116
-39.7234 5.60541 67.6217 80 122 123
-36.3103 16.0336 67.0518 61 102 84
-37.8718 -10.7545 66.8843 69 99 122
-22.2141 34.8347 65.7862 38 51 88
-35.9308 18.3396 66.6259 96 114 112
-36.627 17.1639 66.6647 66 104 85
-36.4514 16.2018 66.6409 55 99 80
-36.3435 15.3321 66.6231 48 92 77
-39.2742 9.31797 66.7748 189 219 196
-39.2004 7.74376 66.7517 125 144 110
-40.1739 3.94426 66.354 194 201 198
-22.7508 34.1081 64.9769 38 51 88
-39.2783 7.79686 65.9055 84 107 74
-35.6458 18.5706 65.3406 48 92 75
-36.7383 16.5156 65.3976 43 91 77
-37.0573 14.0838 65.3906 44 88 79
-40.0521 5.19291 65.5048 138 178 182
-36.6184 17.7515 64.9823 50 93 66
-22.3962 34.2477 63.6897 39 52 87
-34.6611 19.9976 64.4401 195 219 203
-36.8841 16.6613 64.5655 76 122 102
-36.4366 15.3168 64.512 75 120 97
-37.0673 14.0395 64.543 46 93 73
-39.2877 6.24744 64.6057 45 85 67
-18.9964 35.989 63.0292 53 58 82
-40.0672 5.12592 64.2231 139 181 182
-40.4675 2.73369 64.2194 105 127 127
-22.1073 34.4999 62.8296 38 52 86
-34.671 19.9535 63.5965 197 221 228
-36.7011 17.7799 63.7231 183 211 216
-38.8099 10.6421 63.7806 206 209 190
-39.1675 7.48997 63.7609 47 88 72
-25.5583 30.7411 62.623 84 114 91
-36.8598 15.8222 63.2829 149 169 139
-39.9732 4.18801 63.3463 177 215 231
-40.1051 2.89129 63.3363 149 163 155
-39.7765 -4.3668 63.1961 147 151 134
-36.2754 17.8438 62.8464 186 195 188
-38.8878 10.6945 62.9381 156 168 154
-39.2397 6.05991 62.8905 42 84 70
-39.4752 5.66066 62.9028 41 85 83
-40.3465 2.46774 62.9202 82 104 104
-39.8283 -2.07729 62.3732 96 112 106
-39.5481 -4.00537 62.3181 81 103 91
-35.8897 18.6773 61.9856 69 104 83
-36.4262 17.9667 61.5947 45 92 75
-38.9028 10.6279 61.664 42 90 69
-40.3617 2.40054 61.6344 36 82 64
-39.4101 -0.550451 60.6421 38 73 62
-39.3443 -9.01414 60.4743 57 92 79
-39.5259 0.310543 59.8078 36 67 54
-39.5948 -9.4703 59.6146 88 113 137
-39.113 -1.82964 59.2981 35 80 91
-18.0977 35.8661 57.8929 108 123 144
-39.5676 -0.439297 58.9349 69 114 143
-39.1181 -1.8522 58.8664 73 117 139
-39.4399 -7.45813 58.7732 170 203 214
-19.1587 34.4737 57.5309 41 58 95
-20.8436 34.5814 57.6772 39 55 96
-39.9561 2.34665 58.599 143 167 172
-18.4843 35.5934 56.6543 81 91 126
-20.8535 34.5374 56.8349 40 54 96
-39.4827 0.0977715 57.6485 134 137 196
-18.1945 35.8463 55.7915 106 120 147
-20.5642 34.79 55.9737 41 57 98
-39.5347 -7.46861 56.6083 189 212 232
-19.3269 34.5452 55.4373 42 59 96
-21.0965 34.0841 55.582 42 59 96
-38.0874 10.5727 56.4958 44 62 97
-39.3638 -8.52066 56.1325 194 210 232
-39.3344 0.511398 55.9251 66 100 127
-39.4289 -1.60578 55.8795 148 182 208
-40.3806 -3.22604 55.9227 148 186 217
-18.7962 35.8452 54.5801 81 93 129
-35.7198 17.2928 55.6095 57 94 127
-37.8041 12.2943 55.6656 55 86 115
-19.3419 34.479 54.1714 43 65 103
-27.2266 31.0097 54.7885 41 64 109
-19.3468 34.4569 53.7494 45 66 107
-34.6388 19.3023 54.7216 64 101 144
-35.7978 17.3434 54.7732 66 94 132
-37.2211 14.307 54.8195 75 94 148
-37.5513 13.3275 54.8227 62 80 124
-38.0095 11.0733 54.8028 63 88 123
-39.9379 3.54277 54.7724 56 96 126
-39.5551 0.744482 54.6615 112 150 178
-39.8878 -1.77507 54.6231 153 189 221
-39.6754 4.61732 54.3505 44 72 119
-40.9131 -3.31584 54.2427 148 187 215
-34.6488 19.2582 53.8777 66 96 135
-35.5076 17.5967 53.9093 65 91 135
-39.8117 3.29979 53.8983 107 143 175
-39.7021 0.899706 53.8201 130 140 178
-40.4422 -2.52841 53.7907 130 176 222
-17.8625 35.8765 52.3882 120 135 158
-19.29 34.2998 52.4743 44 67 111
-37.4303 13.069 53.5334 54 78 127
-37.6932 11.9908 53.5264 51 75 124
-39.5178 5.07091 53.4944 42 81 126
-39.4129 4.17736 53.4589 60 98 140
-40.9233 -3.36093 53.38 147 185 214
-17.8675 35.8545 51.9663 118 132 150
-27.2313 31.5593 52.7087 43 67 114
-40.7587 -2.87711 52.9478 131 172 213
-20.8274 34.8417 51.7905 45 68 112
-34.4322 19.5833 52.6019 44 71 124
-36.219 16.3532 52.6716 43 70 122
-37.139 13.3233 52.6664 45 72 125
-37.8688 11.4546 52.6783 42 68 117
-39.6691 6.70838 52.7036 37 75 122
-40.9334 -3.40602 52.5173 138 182 208
-19.5199 34.5063 51.2367 45 67 109
-19.9676 34.3689 50.8531 44 67 110
-39.5173 8.63722 51.8974 44 70 119
-40.4675 -2.64108 51.6348 123 171 216
-40.7055 -3.046 51.6446 128 171 212
-40.7818 -1.45165 51.2716 133 172 215
-38.7615 -10.5556 50.7898 201 220 230
-19.8345 34.1432 49.9904 45 69 112
-39.0279 10.073 51.047 45 72 124
-38.4253 -9.54714 50.3538 197 220 236
-38.0297 11.5367 50.5748 45 74 122
-40.792 -1.49663 50.411 139 179 211
-40.6196 -2.50636 50.3611 136 181 212
-38.7405 -9.87718 49.9373 200 215 231
-39.0379 10.0286 50.1977 45 76 132
-40.6247 -2.52889 49.9301 141 186 215
-38.7072 -10.7284 49.4695 196 214 230
-19.5497 34.3741 48.706 45 72 119
-38.2055 11.0003 49.7253 48 79 129
-38.9582 -11.186 48.6052 184 202 219
-19.6312 34.4208 47.8727 47 73 119
-20.8202 33.8716 47.5494 49 75 127
-19.5612 34.9237 46.6201 52 73 118
-36.2788 16.0881 47.5991 48 79 138
-37.5002 12.7589 47.5984 56 106 158
-19.9557 34.0137 45.7833 50 75 123
-39.291 10.0972 45.9831 184 203 214
-19.729 34.9949 44.535 55 79 124
-36.0434 17.0473 45.5013 50 85 140
-38.0383 14.0961 45.5893 131 156 180
-19.7389 34.9508 43.6926 55 81 129
-38.0532 14.0298 44.3209 142 173 189
-19.7488 34.9068 42.8501 56 81 132
-40.5124 4.35034 43.7496 178 197 214
-37.0075 16.8163 43.4844 76 125 160
-38.0632 13.9856 43.4753 164 190 203
-39.0257 11.7285 43.4808 189 211 225
-40.9612 4.20236 42.938 201 216 220
-19.9202 34.3627 41.5823 54 83 129
-38.1706 13.3566 42.6145 187 210 216
-39.2324 10.5087 42.6032 211 228 232
-14.7076 37.8922 40.7572 41 51 77
-36.4512 16.6683 42.1539 107 147 172
-19.7736 34.7967 40.744 55 83 132
-20.0868 33.8401 40.7348 52 82 133
-36.9596 16.6334 41.7857 154 184 189
-39.4452 10.7541 41.7899 212 231 239
-39.8674 6.22713 41.6319 188 206 219
-40.7407 4.53453 41.6502 214 225 229
-40.4918 -1.061 41.3714 140 169 202
-40.3891 -3.50861 40.8191 133 173 202
-39.8097 6.08458 40.7676 207 222 231
-39.335 10.4502 39.6465 190 181 189
-40.1008 6.38754 39.1117 205 215 217
-21.219 33.7287 37.9089 56 88 152
-38.614 12.2737 38.8081 216 229 243
-38.7424 11.0031 38.7602 211 213 222
-39.345 10.4059 38.7985 166 166 172
-40.4881 -3.54244 38.243 118 162 189
-27.1462 29.7674 37.9601 51 88 145
-40.2462 6.53886 38.2848 189 209 217
-38.0603 13.6027 37.9664 221 232 247
-38.3908 12.6236 37.9547 210 217 231
-39.2874 10.2649 37.9379 168 177 185
-40.2832 5.82469 37.828 183 209 225
-27.4342 30.0889 37.1706 53 88 146
-38.4561 11.2352 37.469 195 207 207
-40.2244 7.18511 37.4648 181 201 210
-40.2562 6.49436 37.4334 175 198 206
-35.2838 21.8121 37.2252 61 103 158
-34.2317 23.1582 36.7549 59 98 158
-35.248 21.028 36.7612 96 133 175
-36.0362 19.2815 36.7613 188 213 229
-37.8806 14.7045 36.7359 199 206 216
-38.4661 11.1909 36.6209 171 180 196
-40.7816 -6.29914 35.9797 182 204 220
-38.7046 10.7735 36.2031 159 176 190
-40.4066 6.62335 36.1821 179 202 196
-35.163 21.5599 35.9403 142 161 184
-36.1139 19.3314 35.9326 200 222 238
-38.6115 11.3394 35.7988 158 169 176
-40.3403 5.02014 35.6645 202 216 204
-23.8992 32.8659 34.8126 112 148 180
-37.8955 14.6383 35.4689 188 202 215
-38.6892 11.3914 34.9643 122 129 144
-40.1879 5.45021 34.3925 162 169 197
-37.978 14.6674 34.2151 201 210 218
-38.9327 10.9523 34.1226 106 114 134
-40.9568 -1.66761 33.6642 197 209 216
-34.2245 22.2442 33.7705 182 206 219
-40.097 -6.76763 32.8475 169 187 205
-37.988 14.6233 33.3706 169 163 195
-38.875 10.8115 33.2614 140 174 192
-39.9995 5.08834 33.0727 145 151 190
-40.6614 -1.4098 32.7849 214 221 217
-34.1663 22.1071 32.9169 200 218 220
-38.6535 12.646 32.9162 202 231 242
-39.0706 8.13869 32.7092 173 185 175
-40.1761 6.05365 32.7231 152 164 193
-40.7433 3.17277 32.6269 125 156 188
-40.6716 -1.45473 31.925 208 210 215
-40.7419 -2.89032 31.4208 151 168 190
-34.155 22.7093 31.6926 187 199 210
-38.6382 13.2606 31.6835 188 214 228
-38.6684 12.5797 31.6472 209 234 242
-39.0856 8.072 31.4332 216 231 238
-40.7881 0.910062 31.2198 197 222 228
-40.405 -3.41908 30.9187 150 170 183
-39.2572 7.55512 30.9989 213 233 248
-40.6867 -1.52214 30.6353 204 215 212
-21.0558 35.0146 29.9813 188 198 206
-34.1649 22.6654 30.8531 156 174 178
-38.6481 13.2164 30.8383 186 215 231
-38.7391 11.17 30.7269 206 224 239
-39.0402 10.8716 30.7461 209 227 238
-40.8714 3.95477 30.5569 179 211 229
-40.861 -2.04887 30.1959 192 213 213
-37.858 14.9565 30.4241 122 143 188
-38.6158 12.4174 30.3641 196 225 246
-39.1006 8.00531 30.1572 218 233 238
-39.6323 5.8278 30.0911 186 203 221
-40.6286 -1.66779 29.7609 207 223 230
-40.7295 -2.27307 29.7368 201 221 228
-35.0965 21.0659 30.0331 159 161 177
-37.6307 15.3268 29.9971 130 145 183
-38.5834 11.6167 29.8888 198 224 237
-40.646 4.30921 29.6987 191 216 219
-40.8763 0.92025 29.5204 218 234 235
