ply
format ascii 1.0
element vertex 1310
property float x
property float y
property float z
property uchar red
property uchar green
property uchar blue
end_header
54.7891 11.8398 13.5069 116 115 123
54.3684 12.0433 13.5213 130 131 147
53.8919 12.0061 13.5069 142 142 159
53.387 11.8485 13.478 143 145 156
47.7947 12.0039 13.3765 151 152 167
46.4162 12.1334 13.362 145 144 159
43.0229 11.7512 13.2456 152 154 171
33.231 12.2969 13.0994 153 156 173
32.7461 12.2595 13.0847 153 156 172
25.1981 10.8434 12.7609 125 132 131
-19.8156 8.69334 11.5531 153 150 122
-21.5369 8.0746 11.4453 155 150 125
-44.6823 7.7632 10.9156 154 147 121
-45.5638 8.06302 10.9312 149 145 115
-47.3256 8.66219 10.9625 154 144 110
51.506 11.8203 12.9778 113 112 139
50.4343 11.2628 12.8902 103 98 110
49.085 11.5129 12.8901 138 142 160
48.2149 11.8004 12.9047 146 148 165
46.4163 12.1337 12.9046 142 143 154
45.517 12.3004 12.9046 128 133 144
42.418 11.23 12.714 153 154 172
11.0228 10.1054 11.9088 129 129 139
-49.056 8.16453 10.3923 140 127 101
53.3872 11.8492 12.5651 145 146 160
52.8818 11.6915 12.5357 145 145 161
47.7949 12.0046 12.4621 150 148 166
25.1629 10.722 11.8222 111 121 142
13.1199 10.6275 11.5503 156 157 170
-1.15534 10.008 11.1688 155 151 123
-44.6821 7.76396 9.96419 154 145 116
-48.5878 8.07816 9.91623 119 110 92
54.7893 11.8409 12.1382 117 114 122
54.3687 12.0444 12.153 131 132 147
50.4345 11.2636 11.9753 130 134 157
49.1144 11.6344 11.9901 114 114 126
48.1856 11.6804 11.9752 133 133 157
46.4165 12.1345 11.99 135 136 154
45.487 12.1805 11.9751 144 145 158
33.2313 12.298 11.7215 154 155 171
24.7442 10.9286 11.3754 136 144 164
-32.8983 7.0774 9.66491 154 145 114
-33.7803 7.3766 9.68083 153 142 108
-45.5636 8.06417 9.5045 149 144 104
54.3408 11.9244 11.682 130 130 148
53.3591 11.7295 11.6373 150 144 165
52.8536 11.5716 11.6075 151 145 167
51.4202 11.4596 11.5627 146 148 169
43.0848 11.9944 11.4428 150 149 168
27.1541 10.9964 10.9745 130 131 128
26.1417 10.7986 10.9288 109 113 120
25.1631 10.7227 10.8983 134 140 154
24.1836 10.6468 10.8678 152 153 169
-47.4339 8.41122 9.02885 146 136 110
55.2381 11.7585 11.2258 124 123 121
47.3456 12.089 11.0904 123 120 155
33.1983 12.1776 10.7877 154 152 171
13.7293 11.0344 10.2203 143 142 142
3.26266 10.1085 9.87817 157 155 164
-23.0563 9.29594 9.19851 158 145 111
-35.0769 7.88888 8.76456 151 147 101
-45.7252 7.68542 8.50451 151 146 109
53.3593 11.7302 10.7242 146 146 163
52.2623 11.0522 10.6183 149 150 168
51.4204 11.4603 10.6485 150 149 167
50.4347 11.2647 10.6031 150 145 167
49.1439 11.7561 10.6333 133 123 144
48.2154 11.8022 10.6181 120 118 142
43.0235 11.7534 10.4965 147 145 167
23.7293 10.7317 9.94345 152 156 172
-14.5445 9.58464 8.95208 83 89 75
-15.0974 9.42138 8.92013 85 88 69
-16.1127 9.34352 8.88813 84 90 69
-45.4188 7.21887 7.97935 151 144 102
54.8453 12.083 10.3437 115 114 119
46.3869 12.0153 10.1455 111 116 131
33.1984 12.1784 9.86895 153 154 168
3.30378 10.2327 8.96205 156 159 169
-46.1929 7.77292 7.55265 148 143 93
54.397 12.1665 9.88763 131 130 151
52.3195 11.2944 9.73437 152 151 188
51.4779 11.7023 9.76502 160 159 191
50.4928 11.5069 9.71894 150 149 165
49.1441 11.7569 9.71889 125 126 148
48.2156 11.803 9.70348 130 140 150
43.5048 11.7916 9.59553 128 131 159
42.5114 11.5958 9.5492 150 148 165
24.255 10.8926 9.05052 154 150 168
-0.737835 9.80146 8.35216 151 138 107
-24.0782 9.21892 7.75317 148 145 108
55.2939 12.0007 9.43164 128 119 116
53.8927 12.0094 9.4008 149 146 168
53.4159 11.9722 9.38537 150 146 167
27.0849 10.7543 8.63602 146 145 156
21.9841 11.3138 8.58848 154 149 166
-28.0079 8.06705 7.0511 148 137 99
-36.5778 7.89747 6.83505 146 137 100
54.3693 12.047 8.96009 134 133 145
52.3481 11.4159 8.83574 144 140 149
51.0001 11.6657 8.83568 156 148 161
50.1014 11.8323 8.83565 137 132 162
49.1735 11.8783 8.82004 134 132 158
48.2452 11.9242 8.80442 147 149 161
43.5356 11.9131 8.695 127 125 142
42.0298 11.559 8.61669 152 150 167
41.6412 11.8846 8.648 154 149 171
25.6882 10.885 8.15848 117 117 141
-0.695662 9.9259 7.43463 153 139 97
-17.1286 9.26712 6.97619 141 132 99
-24.0781 9.21968 6.81089 117 103 84
53.8929 12.0102 8.48833 145 142 163
53.3879 11.8526 8.45706 148 145 163
47.7957 12.0079 8.34719 148 151 160
39.071 11.0915 8.03159 124 120 113
28.5502 10.8688 7.76081 128 133 161
22.7491 10.6576 7.60051 152 155 175
14.1855 10.9522 7.43932 107 105 111
-1.78246 9.6016 6.90234 152 142 97
-35.1275 7.76506 5.90343 75 81 68
-36.1627 7.68563 5.86963 113 117 85
-39.2224 7.57322 5.78495 149 141 89
52.0131 11.982 7.98481 137 134 153
51.0003 11.6665 7.9217 124 119 137
50.1306 11.9535 7.93744 114 112 142
49.1737 11.879 7.90584 129 129 157
48.2748 12.0456 7.9058 147 150 161
47.3759 12.2122 7.90577 147 148 163
43.0855 11.9973 7.77903 136 136 152
42.092 11.8018 7.73141 148 149 164
-4.07941 10.0277 6.43502 124 113 84
46.867 12.0548 7.41684 141 135 159
25.2345 10.9703 6.7733 141 140 165
20.5125 11.2018 6.6919 132 122 99
-34.5591 7.93157 4.98934 99 86 63
-35.6448 7.72614 4.93797 86 79 60
-36.214 7.56021 4.9037 105 100 73
54.7903 11.845 7.11968 116 111 110
53.8931 12.0113 7.11964 144 144 166
47.3761 12.2129 6.99156 143 137 163
46.4174 12.1385 6.95949 125 122 144
41.0659 11.4856 6.75034 154 151 165
24.22 10.7727 6.26251 155 151 177
51.4785 11.7048 6.56684 114 113 136
50.1018 11.8341 6.55069 135 138 157
48.7538 12.084 6.55063 143 143 164
43.536 11.915 6.40514 128 126 154
42.0922 11.8029 6.35651 153 151 168
30.9538 10.9377 5.98138 134 133 158
5.13677 9.89611 5.23516 156 155 174
-24.7339 8.80723 4.38666 145 136 74
54.8183 11.9661 6.22337 118 114 115
54.3698 12.0492 6.22335 132 134 147
53.8933 12.012 6.20718 141 143 163
52.9961 12.1783 6.20715 147 146 166
49.6526 11.9178 6.09367 121 122 145
49.2033 12.0011 6.09365 128 131 155
37.2324 11.3069 5.71812 144 132 115
31.8937 10.8919 5.53708 139 134 159
24.2202 10.7734 5.3384 150 151 167
-24.7338 8.8076 3.91506 139 130 82
-35.542 7.97947 3.55007 118 121 87
53.4448 12.0955 5.75093 147 144 166
51.4787 11.7056 5.65308 114 108 135
50.5802 11.8721 5.65304 140 136 168
49.1741 11.8808 5.62034 129 130 159
43.5362 11.9157 5.48918 125 119 152
42.1234 11.9245 5.45632 150 150 164
41.0975 11.6077 5.39057 150 150 168
5.63536 9.93535 4.32041 160 154 165
-0.695042 9.92854 4.1672 148 136 84
54.8185 11.9668 5.31113 115 110 111
54.37 12.0499 5.31111 133 133 144
52.968 12.0587 5.27829 145 143 160
48.7248 11.9645 5.16322 142 142 161
47.3468 12.0938 5.14671 141 140 149
46.3879 12.0193 5.11376 140 138 166
24.2204 10.7742 4.41429 151 151 163
5.09653 9.77376 3.82047 155 146 159
53.445 12.0962 4.83846 147 145 157
51.4789 11.7063 4.73931 118 118 130
50.5804 11.8728 4.73927 114 113 121
49.1743 11.8816 4.70613 120 124 147
41.0976 11.6085 4.47331 150 149 163
22.7498 10.6606 3.90139 157 149 156
-42.0238 8.09564 1.98499 124 125 70
54.8187 11.9676 4.39889 120 112 118
54.3702 12.0507 4.39887 137 132 147
52.9682 12.0595 4.36561 147 149 158
52.349 11.4196 4.26582 146 150 160
48.6956 11.8446 4.23235 138 140 155
47.7669 11.8907 4.21564 145 148 153
47.3469 12.0946 4.2323 132 136 136
46.388 12.0201 4.19891 133 134 146
-2.15632 9.93767 2.73204 153 135 81
53.4451 12.097 3.92601 148 146 163
51.479 11.707 3.82555 139 144 154
50.5806 11.8736 3.82551 130 134 157
49.1452 11.7617 3.77516 121 121 142
48.2461 11.9283 3.77512 145 146 161
15.5159 10.58 2.78707 155 155 163
-13.6203 9.41927 1.91278 107 111 53
-14.7257 9.09239 1.84197 102 108 51
-17.1739 9.14658 1.7887 118 119 59
55.2673 11.8852 3.48666 121 114 104
54.8188 11.9683 3.48664 118 111 116
52.9684 12.0602 3.45294 150 146 164
52.3492 11.4203 3.35183 149 147 163
41.1291 11.7306 3.11441 152 144 159
32.3137 10.6883 2.7556 151 153 162
22.8219 10.9061 2.54876 154 148 165
17.0705 10.9396 2.41022 146 146 156
-2.8279 9.40443 1.70982 150 134 77
51.4506 11.5873 2.8948 152 147 165
50.5519 11.7538 2.89477 149 149 164
49.1454 11.7624 2.86074 124 124 132
48.1874 11.6878 2.82669 137 136 150
35.4257 11.6444 2.50148 150 148 164
19.4575 10.8852 1.99952 146 134 81
17.0706 10.94 1.94716 146 147 154
16.0472 10.7414 1.89479 156 156 164
15.0602 10.6652 1.85982 156 155 158
14.0722 10.5889 1.8248 155 155 156
-18.7005 9.0302 0.794514 146 134 67
-19.6256 9.20166 0.794477 147 132 66
-27.5644 9.20086 0.595694 149 131 68
-32.5427 7.96796 0.304896 152 134 68
54.3146 11.8114 2.54031 131 137 139
53.8379 11.7742 2.52325 144 147 157
52.3209 11.3003 2.42075 151 147 163
41.1605 11.8524 2.21456 154 151 161
39.8083 12.103 2.21451 129 124 103
33.7727 10.8026 1.88608 154 153 164
4.67948 9.98439 1.04232 154 138 115
-16.7115 9.06205 0.378444 150 134 71
55.2676 11.8863 2.11829 117 113 93
51.422 11.4673 1.96362 151 146 161
50.4653 11.3925 1.92916 149 145 158
49.5368 11.4384 1.91189 144 142 145
48.1581 11.5677 1.8946 116 115 125
43.5369 11.9187 1.8254 139 136 143
41.1606 11.8527 1.75616 155 151 153
39.3577 12.1869 1.75609 121 113 80
18.9658 10.848 1.05642 148 130 82
54.3148 11.8122 1.62763 129 129 131
53.361 11.7376 1.59307 145 142 152
52.8838 11.7003 1.57577 147 144 157
48.5493 11.2433 0.944611 120 120 124
40.3536 12.383 0.891829 123 112 87
39.3579 12.1876 0.839262 129 116 72
36.008 12.0469 0.73384 117 111 72
43.0561 11.8825 0.433854 118 107 72
42.1553 12.0494 0.433818 118 110 74
31.8713 11.2821 52.1935 159 154 204
30.4984 11.5512 52.2072 164 159 217
29.5324 11.1747 52.1933 167 159 222
28.1604 11.4439 52.207 164 156 219
-5.70818 9.42704 52.1848 167 160 220
49.14 12.025 51.7283 146 141 174
43.5477 11.8191 51.7297 153 149 186
31.4392 11.6716 51.7454 156 151 202
30.5207 11.8081 51.7528 162 155 213
28.1716 11.5726 51.7471 161 157 220
-4.75425 9.54839 51.7209 169 165 221
-5.68867 9.55679 51.7229 166 161 217
-6.15588 9.561 51.724 167 162 217
46.7079 10.2488 51.1912 136 141 177
27.693 11.449 51.2774 163 157 214
49.1594 12.4096 50.816 122 110 134
46.2564 10.511 50.7374 121 114 141
28.6831 12.0818 50.8382 164 157 213
-4.24872 9.80365 50.7967 168 160 217
-5.67019 9.68703 50.7941 161 159 219
-6.62513 9.56616 50.7905 158 156 216
-7.62254 9.18644 50.7756 158 153 192
45.8053 10.773 50.284 86 86 119
29.5997 11.9459 50.3657 162 156 210
-32.4851 9.02124 50.3449 136 135 191
49.1502 12.2827 49.8815 54 54 90
46.2622 10.6407 49.8113 62 59 90
27.7516 12.0911 49.9108 159 153 198
27.1623 10.8124 49.8531 161 155 198
20.6826 11.2566 49.885 167 155 206
-5.69274 9.55871 49.854 117 111 188
-6.15995 9.56291 49.855 113 105 181
-32.4861 9.02172 49.877 120 107 168
42.6217 11.9579 49.4135 150 145 182
31.457 11.9301 49.4319 85 90 138
52.4305 12.8929 48.976 76 69 93
49.1696 12.667 48.971 96 105 147
43.0854 11.9542 48.9477 142 143 180
20.2292 11.39 48.9611 128 119 175
-2.03563 9.0084 48.8868 170 164 227
-32.4881 9.02268 48.9412 106 95 141
47.754 12.2967 48.4914 143 138 176
40.7516 11.8475 48.4819 150 145 185
21.159 11.3821 48.4936 162 149 215
-21.7286 8.92688 47.9818 151 153 190
40.2755 11.7246 47.5468 148 144 186
20.212 11.2631 47.5584 115 102 160
52.8841 12.7631 47.1131 38 41 69
47.3018 12.5578 47.1122 145 141 180
45.413 12.0632 47.0902 143 148 177
21.5937 11.1226 47.0833 155 149 203
-32.9329 9.15838 47.0771 152 150 185
30.9861 11.9372 46.6438 68 68 114
21.1689 11.5124 46.6386 156 147 197
20.2242 11.3924 46.634 109 99 151
0.897841 9.89083 46.5892 159 155 205
-1.45599 9.78277 46.5876 163 157 205
-7.10151 9.57467 46.5865 162 156 205
-16.8432 10.0503 46.628 155 155 189
-32.9339 9.15886 46.6093 151 150 183
45.419 12.192 46.1677 144 141 174
27.7558 12.2229 46.1996 130 121 166
23.4542 11.1068 46.1479 82 87 132
21.1669 11.5133 45.708 151 146 192
14.1251 11.0626 45.6958 67 65 116
-7.54978 9.70911 45.66 156 153 196
-17.3121 10.0555 45.6953 148 153 192
-18.6891 10.1972 45.7052 150 155 189
-47.3379 7.72733 45.6212 145 149 163
45.4411 12.5764 45.2596 144 140 175
44.0903 13.2267 45.2974 146 142 181
22.0553 11.1203 45.2197 94 101 147
44.0976 13.3545 44.8409 142 142 182
7.60272 11.1221 44.7786 72 79 131
-9.35597 10.1142 44.7512 132 120 173
-17.781 10.0607 44.7625 112 109 133
-47.84 7.6022 44.6767 132 133 146
50.5584 12.7868 44.3344 134 137 165
-10.2905 10.1231 44.2865 107 111 153
-18.6921 10.1986 44.3049 108 117 149
47.2947 12.5612 43.863 143 139 176
44.079 13.1007 43.8993 138 137 174
-17.7831 10.0616 43.8287 124 125 161
-47.4036 7.46857 43.7297 121 123 141
-54.3468 7.92277 43.7674 134 142 159
50.536 12.4047 43.3843 137 135 163
18.297 10.8987 43.3504 45 52 102
47.7344 12.1745 42.911 141 140 165
36.5458 11.7628 42.9053 47 45 78
2.90453 10.9088 42.9106 57 67 109
52.874 12.7679 42.4736 31 39 63
51.0182 12.7846 42.4776 124 128 148
48.6913 12.6778 42.4751 139 138 163
44.5479 13.2254 42.5147 143 138 158
16.4315 10.9164 42.4227 144 136 181
46.8034 12.1838 41.984 144 144 173
51.9376 12.6495 41.5398 48 54 81
16.4295 10.9174 41.491 147 146 183
50.039 11.8996 41.0319 137 135 165
-31.5966 8.8928 40.9765 96 101 131
-32.0646 8.89701 40.9775 100 104 135
53.291 11.8709 40.56 39 38 62
51.9098 12.1393 40.5793 39 44 71
50.4959 11.7678 40.558 123 126 147
42.1289 11.8431 40.5763 40 41 71
2.43349 10.9153 40.5817 153 150 186
52.3606 11.8797 40.0973 36 38 61
51.4311 11.8881 40.0993 46 46 73
41.6631 11.8477 40.1125 37 41 65
53.2829 11.7437 39.6222 56 53 77
51.4235 11.7604 39.6263 40 41 65
42.1269 11.844 39.6466 42 44 65
27.1525 10.9515 39.6124 45 44 73
-31.6265 8.76455 39.564 139 144 180
-32.5899 8.64321 39.5576 138 142 177
41.661 11.8487 39.1828 42 42 65
-44.946 7.97338 39.0648 129 126 151
54.2046 11.6082 38.6819 135 129 165
53.7397 11.6124 38.6829 128 125 155
48.1824 12.0467 38.7208 113 114 146
-1.68625 11.4689 38.7613 149 153 178
-32.0697 8.89941 38.6374 108 108 140
42.5974 11.9694 38.2597 121 120 145
27.6028 10.8202 38.2054 66 69 99
-30.6667 8.88727 38.1663 102 107 131
54.2085 11.7373 37.7607 136 131 161
27.1359 10.8249 37.7406 74 74 94
25.2855 10.9702 37.7535 56 54 92
5.54719 9.85797 37.708 69 63 105
-1.76628 10.9559 37.795 151 151 187
-20.5493 10.3511 37.783 122 124 139
-45.8869 7.98326 37.66 116 114 134
-21.0169 10.3558 37.3173 139 139 164
54.2006 11.6101 36.822 133 131 160
46.3277 12.1932 36.8754 117 122 149
35.1588 12.0376 36.8818 142 141 168
30.3831 10.6678 36.7926 122 123 158
27.1089 10.5685 36.7907 136 138 170
0.323665 12.4789 36.9671 149 147 179
-1.34118 10.6954 36.844 152 148 180
-2.31287 10.4463 36.8279 150 147 183
-15.6934 8.75406 36.7294 148 148 180
-19.6658 10.0856 36.8295 144 145 165
-20.5513 10.3521 36.8496 146 145 172
-21.5333 10.1024 36.8336 146 146 172
-32.0738 8.90133 36.7653 146 149 173
-33.0643 8.65031 36.7491 143 148 171
-3.30645 10.0683 36.336 154 149 175
-22.4681 10.1113 36.3687 150 149 181
54.1808 11.2263 35.8643 133 131 160
45.885 12.5818 35.975 140 133 160
35.1673 12.1665 35.9615 146 140 170
27.1069 10.5695 35.8585 145 141 178
5.41847 8.95457 35.7753 145 145 167
-1.38207 10.4388 35.893 150 148 178
-3.77424 10.0729 35.8702 149 141 164
-15.6725 8.88469 35.8027 137 142 174
-20.5051 10.6108 35.9349 148 148 176
-21.9777 10.2366 35.9101 150 148 178
-22.936 10.1159 35.9029 152 150 178
-32.6252 8.51719 35.8023 150 151 180
43.056 11.968 35.4703 142 136 174
41.635 11.5963 35.4452 140 136 170
4.93183 8.82972 35.2992 148 147 169
2.66698 9.36868 35.342 149 151 174
-28.3067 8.99875 35.3624 151 149 184
48.5881 11.1491 34.9364 138 130 151
32.2091 10.2667 34.8961 144 131 161
31.7314 10.1421 34.8876 144 135 160
27.1423 10.9563 34.9549 148 138 174
4.4811 8.96394 34.8419 148 147 172
3.49085 8.58346 34.8153 148 148 178
2.12413 8.85543 34.8375 150 149 181
-1.87009 10.3151 34.9516 149 147 175
-20.1368 10.0917 34.963 153 151 179
-26.8526 9.24566 34.9106 156 154 184
-27.8398 8.99502 34.8935 153 152 181
-28.3077 8.99923 34.8945 150 150 182
37.9519 12.1429 34.5615 139 117 162
-2.37702 10.0618 34.4668 151 148 178
31.7635 10.5295 33.984 122 84 121
30.3301 10.1556 33.9578 127 86 125
8.8411 10.0906 33.9853 147 149 174
4.44291 8.70571 33.887 148 143 170
3.97502 8.70992 33.888 150 147 175
2.60839 8.98172 33.9107 152 149 178
1.18653 8.8648 33.9039 155 150 179
0.718741 8.86901 33.905 154 152 180
-25.9193 9.23821 33.9731 155 154 181
-26.9061 8.98757 33.9556 155 154 177
-27.4257 8.73244 33.9371 154 153 177
42.5785 11.8461 33.6025 97 48 89
32.2511 10.7831 33.5365 108 59 93
-2.37906 10.0627 33.5333 151 147 181
-24.4419 9.6143 33.532 134 138 173
50.9646 12.1553 33.1491 81 33 80
-3.78034 10.0758 33.0696 152 147 176
54.6853 12.2502 32.6864 75 34 75
52.8216 12.139 32.6805 76 35 84
19.1764 10.6441 32.6132 120 74 87
16.8311 10.5362 32.6083 124 76 80
10.3376 10.8523 32.6427 150 146 175
8.92278 10.7362 32.6357 152 146 176
7.43811 10.1046 32.5884 150 146 178
-18.2508 10.2064 32.6345 118 130 152
-25.4547 9.23544 32.5691 153 153 179
-26.9349 8.85937 32.5418 149 148 172
53.2789 12.0074 32.2048 74 41 82
6.98787 10.2382 32.1329 150 148 176
38.4007 12.0136 31.7625 93 59 95
20.135 10.8939 31.6996 114 70 80
19.16 10.5162 31.6707 116 73 81
12.2155 10.9651 31.7169 151 146 176
7.48796 10.4922 31.686 151 148 177
8.02186 11.0033 31.2602 152 153 184
6.5193 10.2434 31.2009 153 149 182
-25.5085 8.97783 31.1451 151 147 174
-26.0019 8.8524 31.1356 149 148 173
27.5989 10.9564 30.762 136 116 142
20.1045 10.6376 30.7468 120 69 81
19.1579 10.5172 30.7383 119 71 81
18.1962 10.268 30.7193 120 70 78
16.797 10.2806 30.7224 124 76 82
8.03798 11.1323 30.8049 151 153 182
7.08914 11.0121 30.7964 148 146 179
6.05176 10.2481 30.7353 147 147 177
-20.637 9.97122 30.7514 125 126 163
-22.1114 9.59617 30.7229 151 153 185
-25.0669 8.84446 30.6656 149 149 175
52.8103 12.0135 30.3473 90 58 97
-13.5883 10.1668 30.2904 141 145 171
-14.5445 10.0461 30.2818 142 146 170
-21.105 9.9759 30.2855 147 152 184
-24.1069 8.96617 30.2062 149 152 180
25.7339 10.9741 29.8346 117 91 117
21.5007 10.626 29.8116 112 72 92
20.1025 10.6385 29.8146 116 70 82
19.1415 10.3893 29.7952 118 71 77
18.6752 10.3935 29.7962 119 72 78
6.04972 10.249 29.8022 144 146 170
-2.11681 8.76893 29.6901 146 145 171
-13.5669 10.2963 29.8344 133 131 149
53.7375 12.0061 29.4161 114 96 123
52.8082 12.0145 29.4181 97 77 110
26.1859 10.8419 29.357 135 117 140
25.2532 10.8507 28.8932 121 102 136
21.9785 10.7514 28.8893 119 82 100
20.1005 10.6395 28.8824 117 68 81
19.1394 10.3903 28.8625 118 67 78
5.5634 10.1252 28.8592 149 146 170
-13.1469 10.035 28.8781 81 92 104
53.7354 12.0071 28.4868 110 83 125
-7.05781 10.11 28.409 107 106 121
-21.8449 8.55793 28.2959 149 152 171
-22.3378 8.43225 28.2858 149 152 170
25.2512 10.8517 27.9614 117 68 106
20.5645 10.6363 27.9492 114 67 80
-12.6821 10.0317 27.9433 124 132 149
54.198 12.0038 27.5565 76 33 80
26.6603 10.9681 27.5038 107 56 88
-20.4664 8.41636 27.3449 152 151 176
55.1433 12.3796 27.124 74 31 74
53.7384 12.1364 27.1043 75 31 72
48.1423 11.8026 27.0824 81 35 77
27.5784 10.8317 27.0246 103 53 83
20.068 10.3838 26.9952 116 70 81
1.75142 9.6443 26.9549 148 144 171
-19.927 8.80202 26.9101 149 148 170
50.4791 12.0382 26.6354 77 35 87
49.5429 11.9186 26.626 78 36 88
26.6457 10.8405 26.5608 98 56 91
25.2611 10.9817 26.5753 105 57 92
27.5888 10.9612 26.1045 98 67 101
50.4771 12.0392 25.7062 96 59 101
25.6991 10.7212 25.6193 111 69 98
24.7803 10.8582 25.6331 111 71 96
23.8353 10.7379 25.6234 114 71 96
-23.1316 9.22162 25.5487 149 147 170
-30.1997 9.02567 25.5404 146 149 166
27.121 10.9664 25.174 94 48 88
23.7933 10.3527 24.6554 82 34 81
-3.91911 9.30915 24.5954 141 138 158
-31.6592 8.77993 24.5835 148 147 166
49.0802 12.0531 24.3153 97 75 96
29.9134 10.9422 24.2364 92 60 96
27.119 10.9673 24.2425 85 43 78
12.761 11.7388 24.3345 147 145 170
-0.162455 9.40589 23.6646 148 147 166
-28.3844 8.75143 23.64 123 118 134
-30.7517 8.64272 23.6328 144 141 151
-31.2199 8.64693 23.6339 144 143 156
-34.0019 8.80194 23.6523 142 143 144
32.24 10.9222 23.2998 98 71 94
29.8995 10.8146 23.2925 101 71 93
27.1044 10.8397 23.2987 89 45 87
25.7069 10.8523 23.3017 77 32 80
31.2961 10.8025 22.8236 107 75 116
-28.8808 8.62684 22.6922 85 89 90
-30.7804 8.51381 22.6838 88 86 122
-49.0773 8.54821 22.7112 140 143 160
52.7868 11.8937 22.4362 85 43 87
50.9346 12.0383 22.4527 88 47 87
32.238 10.9232 22.3682 88 46 93
27.5806 10.965 22.3784 96 51 98
23.3085 10.2305 22.3122 77 34 81
18.7316 11.0446 22.3978 80 35 81
17.4532 12.0832 22.501 81 37 97
16.9883 12.0874 22.502 81 48 99
-4.71699 10.2243 22.3484 126 124 146
52.7795 11.766 21.9588 80 38 72
27.0889 10.7124 21.8884 84 34 76
-3.74468 10.4742 21.9051 142 144 156
-4.6775 10.4826 21.9071 136 137 154
-6.13855 10.1083 21.8721 111 105 129
-28.4146 8.6236 21.7547 99 115 133
-31.2508 8.51899 21.7481 107 118 143
-49.5165 8.68322 21.7881 145 147 157
-48.2673 8.02119 21.2522 136 136 152
54.6252 11.494 20.9993 106 108 129
51.8543 11.9034 21.044 108 105 134
27.5776 10.9665 20.9812 111 103 146
-3.7267 10.6039 20.9851 150 143 163
-49.6751 8.03432 20.7863 146 147 159
31.7682 10.9293 20.5062 135 132 147
14.2888 12.8813 20.7263 144 144 158
-10.0698 8.97967 20.3623 107 105 130
-16.9002 10.0772 20.4822 149 146 153
-48.2384 8.15229 20.3274 145 146 156
-50.615 8.04372 19.8505 146 147 155
-51.084 8.04794 19.8515 145 148 152
23.3427 10.6197 19.5534 142 139 153
-10.5396 8.98484 19.4278 136 131 150
-45.4589 7.99831 18.9013 148 145 151
-16.6228 9.04048 18.5055 141 138 140
-17.5349 9.17837 18.5211 137 131 143
-0.391879 11.0921 18.2343 143 137 146
-45.461 7.99927 17.9634 120 112 130
-47.8365 7.89022 17.9548 100 102 108
54.1886 12.2697 17.8266 131 129 135
33.1593 10.9196 17.7087 139 138 143
16.2414 9.78203 17.6083 144 142 151
6.92146 9.9951 17.6425 148 146 149
5.97029 9.87438 17.6308 144 144 142
-11.5012 8.86556 17.5448 111 106 117
-18.94 9.19195 17.5888 106 111 115
-41.1246 8.4819 17.5405 109 103 116
51.8527 12.0352 17.3398 134 126 129
-10.5447 8.98724 17.0888 133 137 140
-44.5854 7.73141 16.9956 111 113 125
54.1865 12.2706 16.8978 122 116 116
52.3163 12.0315 16.8742 122 115 123
17.2776 10.6771 16.7701 135 134 150
16.2849 10.1702 16.7164 136 133 148
-4.76976 9.97189 16.7205 129 132 138
-12.4391 8.87494 16.6111 127 130 136
55.1143 12.2628 16.4314 119 111 130
15.8631 10.5614 16.293 112 114 152
3.18436 10.0301 16.2503 115 110 139
-42.5331 8.49598 16.1381 141 139 134
54.6489 12.2674 15.968 113 110 133
52.3206 12.1604 15.959 112 109 137
51.8561 12.1646 15.96 98 97 128
48.1328 12.0701 15.9541 115 112 150
17.2904 10.8066 15.8521 120 118 148
16.3283 10.5576 15.8258 127 123 159
15.3652 10.3085 15.7995 127 119 158
-46.9035 7.88419 15.6075 145 141 138
-48.6863 8.29132 15.6544 143 142 133
-49.6237 8.29975 15.6565 147 142 142
55.1123 12.2637 15.5025 108 104 129
17.2884 10.8076 14.9201 136 135 158
16.3414 10.6874 14.9078 143 141 166
15.3939 10.567 14.8954 143 140 162
-8.63616 9.23182 14.7746 147 140 133
-33.1395 8.54305 14.7266 145 144 139
-45.5288 7.74225 14.6517 148 142 137
-46.5589 7.35964 14.6102 150 142 135
-49.6571 8.17071 14.7045 145 140 130
46.2713 12.0882 14.5643 122 122 148
55.1035 12.1372 14.0948 110 103 133
52.3102 12.0344 14.0864 83 79 109
51.8456 12.0386 14.0874 76 79 111
16.3545 10.8169 13.9902 146 143 161
-1.52728 9.81634 13.8974 146 140 132
-8.61695 9.36222 13.8541 133 129 129
35.066 11.549 13.5862 145 139 170
17.3002 10.9377 13.5368 135 136 154
15.8875 10.8216 13.5252 148 142 168
55.0958 12.0103 13.151 109 104 131
52.3082 12.0353 13.1571 119 119 132
0.35766 9.92955 12.9742 142 138 126
43.4711 11.9872 12.697 138 135 163
35.0745 11.6783 12.6707 143 137 165
24.2728 10.7472 12.5749 107 98 130
21.9705 11.0253 12.6098 135 127 150
19.5988 10.6604 12.5701 138 134 127
16.3212 10.561 12.5623 145 143 160
15.4041 10.6982 12.5793 146 142 163
14.0216 10.8393 12.5973 147 144 164
55.0938 12.0112 12.2218 105 104 130
52.3061 12.0363 12.2279 134 130 151
-52.4761 8.19889 11.8977 148 141 124
17.2664 10.6824 11.6431 136 136 158
16.3191 10.562 11.6299 144 141 164
15.4174 10.8277 11.6623 146 142 168
-22.4486 8.05967 11.3785 138 134 118
55.0918 12.0122 11.2925 108 107 130
54.6272 12.0164 11.2936 122 119 148
52.3041 12.0372 11.2986 135 132 157
51.8395 12.0414 11.2997 136 133 157
48.13 12.2027 11.323 106 106 114
21.9674 11.0268 11.2126 137 131 136
14.0342 10.9694 11.2146 148 146 156
-15.52 10.0742 11.1414 147 136 125
-20.9949 8.30752 10.9376 146 140 118
-21.4633 8.31173 10.9386 148 139 115
-53.9169 8.08238 10.9477 147 142 117
54.1556 11.893 10.8146 131 127 153
47.657 12.0795 10.8442 100 106 107
45.334 12.1004 10.8493 118 115 125
17.2495 10.5545 10.6955 139 139 160
16.302 10.4341 10.6821 145 143 161
15.4308 10.9573 10.7457 146 147 163
3.63891 10.0317 10.648 150 141 167
-15.521 10.0747 10.6745 146 134 124
-17.3651 10.2205 10.694 146 135 126
-28.7798 6.94246 10.3142 145 138 118
-51.5733 8.06178 10.4737 141 139 119
-52.9801 8.07443 10.4767 139 140 115
55.0897 12.0131 10.3633 108 105 127
52.3021 12.0382 10.3694 141 141 165
51.8375 12.0424 10.3704 141 142 164
-24.8457 7.82195 9.94617 140 130 119
-28.7808 6.94295 9.84451 142 134 114
-29.2505 6.94717 9.84553 144 135 116
-30.6597 6.95984 9.84862 146 137 113
25.2245 10.9989 9.80816 128 132 158
17.2325 10.4267 9.74742 138 138 159
16.2999 10.4351 9.74947 146 143 165
15.4134 10.8296 9.79837 147 142 166
1.73244 9.79127 9.68723 147 144 117
-21.8613 8.70693 9.5814 145 141 108
-27.3726 6.93076 9.37167 108 96 88
52.3001 12.0392 9.44013 147 143 160
51.8419 12.1712 9.4568 153 150 170
49.5124 12.0642 9.44623 116 114 127
47.654 12.0809 9.4503 131 130 147
-4.74549 10.2377 9.28186 91 88 79
-20.4096 8.95414 9.14187 145 138 116
55.0924 12.1425 8.98516 110 106 124
51.3698 12.048 8.97754 136 131 160
50.4406 12.0563 8.97958 124 115 137
49.5114 12.0647 8.98161 120 115 131
17.2454 10.5564 8.83064 139 136 153
16.2979 10.436 8.81682 149 141 159
15.4267 10.9592 8.88224 147 137 155
1.28224 9.92547 8.77015 146 141 114
-5.23355 10.1133 8.80035 99 101 79
-19.4988 8.81655 8.65595 135 136 110
-20.9271 8.69947 8.64307 146 136 112
-21.8388 8.83759 8.66108 146 137 110
-22.7748 8.84601 8.66313 147 140 116
52.3044 12.168 8.52675 131 125 142
48.5812 12.0735 8.51902 136 133 160
-4.74752 10.2386 8.34853 121 121 97
17.2434 10.5574 7.89822 139 138 155
16.7621 10.4328 7.88315 140 144 155
15.86 10.6988 7.91736 131 130 144
-3.83531 10.1017 7.86372 145 129 102
54.6307 12.276 7.60872 126 123 143
51.3668 12.0494 7.58365 106 106 132
50.4444 12.1857 7.60179 104 104 115
49.9799 12.1898 7.60281 99 101 109
1.70863 9.66444 7.33597 130 125 98
-4.74956 10.2396 7.41521 132 123 109
-22.2853 8.97289 7.27431 143 133 106
17.7223 10.6829 6.98109 128 122 147
0.811294 9.93158 6.90361 141 130 102
-3.81729 10.2317 6.9465 123 112 104
50.4424 12.1866 6.67276 124 120 133
13.1083 11.1111 6.57439 118 115 140
-29.0216 8.12396 6.23704 94 76 79
55.0977 12.4011 6.23092 108 105 120
12.6415 11.1158 6.10965 121 118 151
4.50816 9.64068 5.92849 151 145 166
-18.1009 8.80681 5.84471 84 86 80
-45.5482 7.75141 5.73747 142 132 98
55.0967 12.4016 5.76663 106 105 120
49.5043 12.068 5.72922 111 110 121
48.5824 12.2043 5.7478 136 136 148
17.7193 10.6844 5.5828 107 98 124
-3.8003 10.362 5.56319 116 108 83
-4.75363 10.2415 5.54856 106 105 76
-2.22486 11.5075 5.24419 141 128 96
-26.008 9.13853 4.95979 115 109 73
-27.4114 9.15114 4.96287 116 106 70
-33.7665 7.90735 4.80731 109 101 76
-43.6139 7.99589 4.82888 139 131 91
-44.6421 7.61362 4.78012 139 129 93
-45.0811 7.74815 4.79809 142 132 96
49.0448 12.2011 4.81775 122 123 141
48.5803 12.2052 4.81876 133 132 150
43.4283 11.6111 4.74604 122 123 136
42.4807 11.3629 4.71445 141 138 154
40.1822 11.7685 4.76997 140 134 123
37.3925 11.7936 4.77608 129 118 116
17.2213 10.432 4.61788 134 132 156
4.05616 9.77555 4.54509 165 165 178
-3.82238 10.2341 4.61319 139 124 95
-4.77594 10.1134 4.59835 135 120 91
55.0936 12.403 4.37376 107 104 124
-2.1681 11.8932 4.36388 142 126 90
-33.851 7.51755 3.81792 136 122 89
-34.3202 7.52177 3.81894 137 124 90
-38.898 8.08483 3.89788 139 119 96
-39.8356 8.09326 3.89993 138 116 91
-40.7441 8.23172 3.91912 137 119 86
-44.6442 7.61459 3.84155 137 115 89
-45.0529 7.87937 3.87692 141 115 90
-51.2457 7.5433 3.83876 133 123 87
-52.6217 7.68631 3.85903 141 119 82
54.1523 12.1561 3.87753 133 129 147
49.0356 12.0741 3.87173 121 123 142
43.4263 11.6121 3.81588 127 125 138
42.4962 11.6204 3.81792 136 135 149
17.2044 10.3042 3.66814 141 138 158
4.07226 9.90556 3.62823 153 150 169
-2.75263 11.1278 3.79748 138 125 95
-3.35777 10.2308 3.67885 136 124 101
55.0802 12.1482 3.41098 108 104 119
-1.80242 11.2485 3.34674 144 126 92
-28.351 9.16148 3.09372 89 80 83
-51.2477 7.54427 2.89996 107 102 77
-52.6559 7.55693 2.90304 97 99 59
43.4242 11.613 2.88573 136 128 150
42.4941 11.6214 2.88777 141 137 153
18.6599 10.8075 2.80151 123 116 111
-3.35981 10.2318 2.74552 134 121 98
-13.1593 10.3199 2.76698 75 78 69
-28.3781 9.03238 2.6085 72 76 71
55.0725 12.0212 2.46461 108 104 119
53.2141 12.038 2.46868 134 130 146
-51.6554 7.8101 1.99745 112 111 73
-52.6579 7.55789 1.96424 103 105 69
1.71513 9.79942 1.74819 135 121 81
0.333223 9.94106 1.76885 144 125 85
-13.1847 10.1923 1.34932 133 123 74
8.75185 9.99557 0.834498 127 113 109
-51.6585 7.81154 0.589934 143 125 80
6.39949 9.88792 0.3549 128 109 81
5.46574 9.89632 0.356945 129 111 78
-13.2091 10.0642 0.397844 141 125 81
48.82 11.5996 51.6264 150 141 215
-27.5035 8.59929 52.3007 143 140 173
34.5537 12.0228 51.3227 161 149 218
-38.0127 7.61851 51.9061 142 142 174
43.685 10.7421 50.6985 152 149 209
34.5374 12.1553 50.3875 162 149 218
-10.5424 10.2714 50.7958 126 118 149
53.3555 13.303 49.7607 134 133 170
2.40364 9.95221 50.1729 135 134 186
1.94237 9.875 50.1745 143 142 192
34.9978 12.2344 49.445 161 148 219
29.8708 11.6422 49.4752 156 149 219
6.06325 11.2226 49.7224 147 144 189
2.40672 9.82226 49.6992 122 124 156
-0.810705 8.88867 49.6924 147 146 190
-9.62571 10.2965 49.8555 94 94 132
-10.5493 10.5327 49.8767 93 89 137
54.301 13.3292 48.8068 132 125 163
53.3694 13.1733 48.8101 113 107 145
42.1166 11.9594 48.881 154 146 207
40.5069 13.6894 48.9799 161 146 222
30.321 11.8515 49.0096 149 147 214
1.94357 9.74576 49.233 128 131 174
-11.0084 10.3267 49.4069 92 89 131
-38.0165 7.75226 49.5929 112 112 142
31.7222 11.9542 48.5283 69 66 135
30.3192 11.8522 48.5395 150 147 214
29.3804 11.8279 48.5491 156 148 212
16.3188 10.9663 48.6581 154 148 202
3.33102 9.84742 48.754 96 97 131
2.40318 9.82372 48.7636 107 108 153
1.48506 9.53842 48.7605 143 141 195
0.109177 9.0447 48.7529 145 141 190
-0.348339 8.83633 48.7482 145 141 186
-9.62732 10.1679 48.918 100 98 132
-10.5528 10.5342 48.9461 98 89 117
43.0882 11.7225 47.9147 152 143 210
-11.0135 10.4581 48.4824 107 107 131
51.0181 12.9169 47.4081 84 84 131
50.5524 12.839 47.4097 121 122 182
49.1226 12.8675 47.4279 144 139 189
2.40936 9.56352 47.815 126 127 180
1.48152 9.53987 47.8247 143 142 191
52.9312 12.8357 46.909 42 42 79
51.0332 12.7864 46.9291 100 99 144
49.1372 12.7371 46.9492 144 140 193
48.2384 12.3185 46.939 143 138 197
47.3068 12.1626 46.9422 149 141 201
30.3022 11.9853 47.136 111 101 170
-11.9348 10.3059 47.555 141 138 176
-12.8549 10.4121 47.5713 137 137 176
50.5992 12.4463 46.4447 132 134 186
2.3961 9.82663 46.8924 143 139 186
1.47334 9.67216 46.8956 144 140 185
52.4615 12.7591 45.9656 41 45 82
51.5125 12.7345 45.9759 86 93 132
50.098 12.6319 45.9878 138 136 180
49.15 12.6073 45.9981 141 139 187
-9.17474 10.1183 46.5809 143 140 181
-12.3973 10.2305 46.626 141 137 176
-33.438 9.04146 46.8212 138 136 173
2.39257 9.82808 45.9568 140 141 176
1.46519 9.80433 45.967 140 140 170
-11.0191 10.2018 46.1421 143 140 182
43.8426 13.3247 45.1584 146 142 193
42.9288 13.0385 45.1545 133 123 176
41.492 13.1976 45.181 65 60 115
-11.0209 10.2025 45.6766 139 139 187
52.4734 12.6299 44.5406 42 44 87
51.5241 12.6053 44.5513 106 108 153
50.676 11.7913 44.5177 134 131 174
43.3914 13.1169 44.682 138 132 183
-2.74379 11.0673 45.1535 147 140 185
18.6413 10.9675 44.4085 48 47 86
12.5596 11.138 44.4957 59 58 114
-1.82639 11.2219 44.6843 143 139 184
52.4526 12.7628 43.603 44 45 86
51.5205 12.6068 43.6063 104 106 153
45.3536 12.5126 43.6807 142 138 184
12.0799 11.3232 43.5761 56 65 107
-1.36641 11.1704 43.7432 143 140 179
36.8822 12.0315 42.8213 54 54 102
46.2944 12.5393 42.2544 144 135 180
42.5699 11.9169 41.7957 52 49 91
34.5053 12.1684 41.9196 135 130 170
34.054 11.9598 41.9133 117 109 149
36.8635 12.1647 41.4167 129 132 177
36.8599 12.1662 40.4751 144 136 191
-6.42826 10.0678 40.9482 107 111 140
-17.9257 8.9265 41.0375 93 97 127
16.2952 10.8486 40.2109 143 136 178
-2.29814 11.0215 40.4838 144 142 177
-17.9275 8.92723 40.5718 107 112 151
-35.7322 9.05745 40.831 89 88 115
36.392 12.0899 39.5352 130 126 165
34.4964 12.1721 39.5675 138 133 169
-18.3883 8.98151 40.1162 133 129 158
-6.89606 10.1232 39.5594 131 133 174
-12.4224 10.1114 39.6381 131 135 166
-17.4717 8.87521 39.6305 129 131 162
-35.7357 9.05889 39.9051 127 132 161
36.3885 12.0914 38.5937 76 78 132
-2.31082 11.2836 39.1028 141 134 172
-36.646 9.03635 39.4538 137 135 167
48.7192 12.016 37.9368 61 51 77
42.1342 11.4505 37.9958 107 109 146
-4.14073 10.5865 38.6172 120 112 142
-5.52308 10.4858 38.6308 108 108 151
-6.89958 10.1247 38.6269 106 106 155
-35.7304 9.31934 38.9963 121 126 166
-36.6478 9.03707 38.991 126 130 173
36.3849 12.0929 37.6521 107 113 148
-2.31064 11.1551 38.1622 138 137 168
53.9137 12.3498 36.9365 129 127 155
16.2763 10.9838 37.4063 83 77 97
-1.3854 11.0498 37.6751 141 137 175
-45.7604 7.89977 38.1238 104 98 147
42.1142 11.5842 36.5886 136 133 170
36.859 12.041 36.6996 138 134 177
-34.8271 9.34488 37.5961 100 113 143
-35.7269 9.58031 37.626 102 112 150
-36.6438 9.29819 37.6203 98 104 149
33.5435 12.1528 36.2871 142 135 178
-5.05832 10.0447 36.7281 137 135 168
-22.9722 10.1686 37.0101 130 129 165
42.6058 11.4005 35.6237 136 133 176
33.5417 12.1535 35.8167 141 134 180
3.27817 9.99782 36.1298 138 137 169
-35.7304 9.58175 36.701 137 137 165
-36.6473 9.29963 36.6951 137 135 164
53.4574 12.143 35.036 129 113 139
52.0229 12.172 35.0604 129 117 146
50.1236 12.1229 35.0864 133 120 150
49.6573 12.0449 35.088 132 122 150
-23.4349 10.0942 35.6202 140 139 172
-37.5681 9.0188 35.7637 138 135 174
-50.1968 9.33955 35.9852 140 140 164
12.5224 11.1533 34.6648 141 137 175
-3.67821 10.0179 34.8378 128 127 168
48.7031 12.0226 33.6831 87 42 91
-29.3856 9.10016 34.7134 140 138 165
8.87668 9.48893 33.6618 139 137 171
30.3427 10.9584 32.9553 100 56 92
18.1972 9.98987 33.0792 116 73 92
-26.642 9.69075 33.7859 139 139 168
-28.0329 8.68309 32.8028 141 140 173
53.4606 12.0171 31.2396 111 90 125
30.3355 10.9614 31.0718 117 99 143
53.457 12.0186 30.2929 99 69 116
17.6386 11.2262 30.8379 118 71 88
12.5376 10.6365 30.8771 140 140 171
7.42328 10.4397 30.9482 143 140 167
17.1388 11.6726 29.9454 117 70 87
17.1522 11.413 28.9864 117 71 83
-19.8012 9.93839 29.5121 130 129 166
49.6636 11.7926 27.9738 79 37 86
52.4935 11.9993 26.9945 72 34 73
51.5583 11.8438 26.5246 80 47 76
17.162 11.1546 27.0889 115 72 86
2.76833 10.3263 27.2778 142 137 171
16.6812 11.3393 26.6451 114 77 95
3.66285 11.1331 26.8651 140 136 171
2.76161 10.4576 26.822 141 135 166
52.0214 11.9234 25.5765 83 47 102
51.1049 11.6352 25.5678 84 51 100
17.1415 11.4174 26.1749 117 76 100
52.5019 11.8711 24.6161 86 55 97
17.1465 11.2882 25.2256 94 54 107
19.5013 11.0222 24.6879 83 37 89
52.0143 11.9263 23.6837 96 76 109
17.6224 11.1056 24.262 80 34 85
24.1977 10.882 23.646 74 31 80
19.9331 11.4934 23.7849 77 33 82
12.4744 11.3005 23.9099 139 134 163
-47.6213 7.87466 24.7418 137 138 163
-48.5556 7.33259 24.709 141 140 163
-49.0118 7.25622 24.7106 143 139 163
51.1111 11.5078 22.715 97 52 103
-0.506279 10.8353 23.6486 139 136 164
24.6784 10.6987 22.6788 75 32 83
-48.5516 7.46392 23.796 143 137 169
-5.11125 10.0665 22.7318 112 107 131
41.1837 10.9251 21.4339 93 76 99
-1.9072 11.1268 22.3046 141 136 165
-2.3632 10.9197 22.2936 141 137 162
-3.27244 10.3753 22.2587 139 135 160
54.284 12.716 20.8758 121 119 136
53.3687 12.4283 20.8659 119 117 140
52.4702 12.0089 20.8427 121 120 141
-0.108255 12.6018 21.9469 139 135 161
-1.46097 11.594 21.8753 140 136 163
-2.83191 11.1035 21.8546 139 135 152
51.9846 12.0632 20.3845 132 133 143
53.3652 12.4298 19.9199 126 125 139
52.4667 12.0103 19.8962 131 134 140
-1.92385 11.5186 20.9454 138 135 157
-2.83544 11.1049 20.9226 140 135 161
-34.481 7.88834 21.2412 112 118 149
54.2433 12.981 19.4843 127 122 136
29.3179 11.3485 19.8272 134 132 153
-0.113532 12.604 20.5517 140 139 155
-1.01891 12.062 20.5157 136 136 155
-33.571 7.91214 20.7608 134 131 151
-34.0249 7.96569 20.7754 134 132 154
53.3616 12.4313 18.9739 128 123 136
52.4631 12.0118 18.9498 125 119 130
-1.91601 11.1304 19.9742 138 136 154
54.7237 12.9292 18.5236 126 124 135
30.73 11.3206 18.8541 133 131 144
23.2227 11.1274 18.9892 134 126 146
0.363337 12.0348 19.5534 138 134 154
-0.555171 11.881 19.5566 139 135 154
29.8114 11.0347 18.3729 133 128 140
22.7576 11.0506 18.5211 133 126 140
-10.1834 8.96373 18.9902 135 130 147
2.22078 11.6952 18.5477 135 133 148
-1.46161 11.2095 18.5743 129 117 138
52.9227 12.0929 17.0553 115 108 141
23.2173 11.1296 17.58 135 129 145
2.72803 10.4714 17.9425 136 130 148
1.76857 11.3592 18.0557 136 132 148
-47.6513 7.75433 18.7188 137 130 148
22.7424 11.1837 17.1259 131 127 160
15.7539 10.676 17.2204 135 131 147
20.8785 11.0053 16.6769 128 125 140
46.2555 12.0558 15.3022 98 98 123
35.4879 10.7903 14.9263 133 131 158
34.0791 10.6883 14.9459 134 131 159
-3.74389 9.78676 15.6715 135 130 139
-4.66819 9.76303 15.6891 136 130 140
42.4516 12.0908 14.4447 133 128 159
-12.9619 8.76865 15.2946 137 132 142
-3.75076 9.91864 14.752 135 129 126
-13.4239 8.69235 14.8297 136 130 137
-34.9153 9.2499 15.3659 141 134 140
-38.1413 7.93568 15.2915 139 136 141
-28.5541 8.89467 14.7218 141 136 133
-35.3607 9.56255 14.9477 141 134 138
-36.2868 9.02133 14.9078 139 132 141
-39.5095 7.83685 14.8471 140 133 140
40.5567 12.0441 13.0663 130 124 157
22.738 11.0586 13.3539 133 128 148
-4.21802 9.97352 13.8346 116 116 122
-13.4284 8.8245 13.9113 118 112 124
22.2535 11.2437 12.9159 129 128 149
-37.6796 8.27431 13.9283 138 132 131
40.5389 12.1768 12.1387 130 128 156
1.80086 9.93317 12.7599 130 127 124
22.2499 11.2451 11.9769 101 98 121
-24.9345 6.90154 12.5525 137 130 129
40.5353 12.1783 11.1959 129 124 153
-2.3836 10.2847 11.9611 138 127 120
53.3818 12.0495 10.4127 127 125 147
-3.30264 10.0008 11.4822 137 131 121
-24.938 6.90299 11.6196 137 132 132
-26.7781 6.59497 11.6261 138 131 122
40.546 12.0485 10.2374 128 125 154
-25.8578 6.88073 11.1718 138 131 122
-18.0392 10.0145 10.8944 134 124 120
-1.92271 10.1039 10.061 137 126 115
-3.3114 10.1334 10.0972 133 117 114
-26.7789 6.85927 10.2581 138 128 119
-27.2364 6.91338 10.2753 137 126 116
46.6963 12.1441 8.68853 104 105 119
-17.1259 10.0395 9.94605 124 110 105
-18.5008 10.069 9.98215 110 110 89
-23.5606 7.5297 9.79624 135 130 121
14.3263 10.5877 8.7984 121 114 123
-3.31493 10.1349 9.16368 123 114 106
52.8869 12.1076 7.59088 118 113 142
-3.31846 10.1364 8.23013 127 122 112
51.4661 12.0064 6.66609 113 113 136
48.135 11.9864 6.74442 132 122 151
-12.0699 8.93431 7.82661 115 110 90
-45.8519 8.33468 8.57169 136 129 117
-46.3077 8.25838 8.5733 138 128 119
-47.2194 8.10578 8.57651 119 109 112
-48.1163 8.2123 8.61146 103 94 104
-12.5348 8.98939 6.91157 127 116 94
-23.555 8.96942 7.17956 133 117 106
-45.8486 8.46565 7.66346 137 124 110
-46.753 8.44253 7.68276 134 122 108
-47.6642 8.29 7.68597 123 112 101
-48.1141 8.34395 7.24183 133 120 103
-46.7424 8.70279 6.79149 137 125 99
-47.6604 8.42092 6.7784 136 125 103
45.2673 12.0483 4.46009 126 124 147
27.8579 11.27 4.79522 124 119 152
-24.4756 8.94828 5.80488 84 71 78
47.1601 12.0979 3.94664 114 109 134
46.2126 12.0735 3.96729 113 110 133
-46.2905 8.78045 5.86644 136 124 94
45.2637 12.0497 3.51575 124 120 140
46.6712 12.1544 2.07649 107 97 133
45.2584 12.0519 2.09923 106 101 137
-37.7181 8.29016 3.73368 128 107 94
46.2037 12.0771 1.60584 113 104 105
45.2566 12.0527 1.62706 117 107 110
0.367642 9.97967 2.04336 132 119 82
23.5528 12.0195 -0.162292 124 109 80
47.3158 11.8596 52.0242 119 127 151
25.0939 9.76429 52.3753 127 127 158
24.1288 9.70818 52.3918 126 126 150
25.0908 9.7644 51.8995 125 121 153
24.1258 9.7083 51.9163 125 122 152
23.1282 9.78239 51.9386 126 128 158
47.5625 12.6743 51.0893 92 89 100
24.0859 9.83879 50.971 121 122 153
23.0886 9.91273 50.9939 129 128 157
5.35766 11.3538 51.4077 129 131 157
1.38003 9.94914 51.4327 130 131 163
7.65244 11.7506 50.9079 129 129 156
5.3259 11.4819 50.9447 130 129 158
4.4422 11.1698 50.9502 126 126 152
-33.4288 9.29559 51.6492 136 133 172
47.1806 12.2532 49.6399 80 89 110
7.09032 12.1061 50.465 130 129 156
38.6106 12.5445 49.3519 127 126 153
37.26 12.0675 49.3604 126 128 153
23.0795 9.91307 49.5687 113 118 145
7.08733 12.1062 49.9964 129 128 156
6.14574 12.0498 50.0138 127 128 153
-33.8488 9.01704 50.7281 138 134 172
-39.5296 7.40837 50.7804 130 130 162
-40.8447 7.07644 50.7942 132 135 172
38.1948 12.2555 48.871 128 126 155
5.2882 11.6101 49.545 123 123 146
4.40472 11.2981 49.5505 89 94 120
-41.416 7.93253 50.384 128 134 175
-43.8364 9.17924 50.4887 138 139 179
50.0102 12.8206 48.1625 101 109 129
8.6434 11.5512 49.0014 125 129 159
7.69921 11.4948 49.0193 128 129 159
-2.18631 11.0346 49.213 129 131 160
-39.5703 7.66104 49.8745 75 80 112
-40.4696 7.60792 49.8916 107 112 144
54.3359 13.4766 47.6162 109 109 129
53.4283 13.1561 47.6219 54 55 79
8.07977 11.9073 48.5599 127 130 158
7.25371 11.3387 48.5528 126 127 159
6.81122 11.1824 48.5556 127 128 164
5.33973 11.3544 48.5954 128 119 164
-33.8575 9.01737 49.3506 81 86 97
-41.8703 7.90613 49.477 104 103 112
46.1803 12.1958 47.2581 124 124 151
-2.21908 11.1624 48.2858 131 134 162
-33.4086 9.04439 48.8826 73 86 103
-38.6937 7.84062 48.9457 106 111 143
-39.5936 7.78734 48.9633 82 90 110
-40.4926 7.73418 48.9808 86 87 121
54.3716 13.3459 46.6466 88 88 99
46.1376 12.3268 46.7851 123 124 145
8.19171 11.3952 47.5956 127 126 155
7.24773 11.3389 47.6143 124 126 158
-37.7958 7.89394 48.4692 104 107 168
6.3307 11.1547 47.1572 121 119 151
-33.4334 9.17059 47.9704 116 118 140
54.4492 13.0841 45.6694 68 68 90
48.9673 12.8937 45.7869 124 120 156
46.0522 12.5885 45.8396 126 125 158
7.77243 11.1107 46.6526 110 112 151
-38.7024 7.84095 47.5695 132 131 170
-39.585 7.66159 47.5813 124 128 163
-40.5014 7.7345 47.606 124 128 170
-41.882 7.90656 47.646 122 124 170
47.5658 12.545 45.3225 125 123 152
39.3008 11.7924 45.4792 100 103 123
-2.25776 11.2903 46.4259 129 127 158
49.495 12.7922 44.8088 124 124 146
47.6028 12.4142 44.835 122 124 148
42.9057 13.0666 44.9782 101 100 120
7.26504 11.2111 45.7302 48 54 74
-38.2787 7.99402 46.1906 132 133 170
50.7627 11.9329 43.7734 121 119 146
1.36598 9.82235 44.8636 128 129 158
-31.2054 9.43215 45.6334 134 135 163
43.3863 13.096 43.5328 99 97 119
-14.4807 8.88846 44.7353 103 98 110
3.7406 9.83268 43.8674 29 40 75
-2.24586 11.1634 44.0859 131 129 159
-2.225 11.036 43.145 131 129 163
44.3936 13.0243 41.589 125 121 143
-14.4926 8.8889 42.8755 118 125 148
48.7632 11.8179 40.4481 121 121 148
40.2484 11.851 40.6739 95 99 119
-6.27258 10.021 41.7934 96 105 128
-13.5738 8.9436 41.9243 110 114 156
40.3184 11.59 39.6995 71 76 98
52.7109 12.0502 38.4291 97 96 118
53.5751 12.5026 37.9505 118 114 141
41.7699 11.677 36.7903 121 122 147
-12.4028 10.046 38.2383 90 97 125
-4.9015 10.1048 37.5604 112 114 145
46.9722 12.649 35.743 123 117 149
-2.26369 11.0375 37.077 131 126 159
-4.90745 10.1051 36.6269 127 128 151
49.6742 12.0084 34.6599 112 83 103
46.5533 12.3586 34.7763 115 90 107
38.5945 12.2876 35.0087 121 112 148
0.285912 12.3521 35.6883 130 126 160
-1.41936 11.4762 35.6806 130 124 155
-4.49953 10.3884 35.7 95 92 112
-5.37958 10.0777 35.7055 101 103 122
-23.1425 10.3025 36.2553 131 129 165
47.6525 12.0239 33.7599 78 37 78
40.6187 12.1425 33.9817 90 48 78
-2.30238 11.1655 35.2195 129 129 155
-1.83843 11.1935 34.7404 125 128 157
-4.50548 10.3887 34.7667 94 101 122
-35.7689 9.03884 35.6327 134 133 162
-49.1956 8.23731 35.9893 135 135 164
-2.28154 11.0382 34.2764 127 125 159
-21.8899 11.0157 34.8823 133 131 165
20.0888 9.7487 33.0188 106 62 72
-1.84438 11.1937 33.8069 129 127 160
-4.48517 10.2611 33.8235 125 125 158
-37.5225 8.5541 34.7358 134 130 163
54.0732 12.4019 31.6616 79 65 100
20.0857 9.74881 32.5445 103 61 75
21.4909 9.96305 32.0407 96 57 65
-4.051 10.4168 32.8872 127 126 150
-5.39743 10.0783 32.9056 104 100 129
54.067 12.4021 30.6973 104 86 110
20.0797 9.74904 31.5957 102 60 73
17.936 10.5445 31.7229 107 66 67
8.98118 9.62546 31.9434 128 127 156
19.5315 9.98089 31.1561 103 59 74
-5.86931 10.0509 31.9853 81 79 92
-11.9789 10.075 32.1853 87 86 101
-12.4413 10.0474 32.1983 85 87 99
54.1027 12.2709 29.7219 101 89 109
20.0736 9.74926 30.6469 103 60 71
-11.9819 10.0751 31.7206 71 77 101
-12.4472 10.0476 31.2691 80 86 108
54.0966 12.2711 28.7573 97 67 116
27.5707 10.9804 29.5424 103 83 110
-23.4046 8.8848 29.6929 135 130 161
46.0853 12.07 26.1277 87 55 79
-1.47833 9.27544 27.5682 119 116 146
49.6159 12.0105 25.5177 76 48 70
48.0134 12.3169 25.5996 75 45 78
46.4952 12.3608 25.657 74 42 77
45.0981 12.0122 25.6777 79 45 80
18.5367 11.8934 26.6073 101 63 85
-21.6943 9.62774 27.8437 133 133 159
47.5173 12.288 25.1344 73 39 79
36.6205 12.0445 25.5027 84 43 79
29.0319 10.9365 25.6812 92 60 83
-1.45721 9.1472 26.6196 105 96 131
48.5813 12.084 24.5985 92 70 89
47.5142 12.2881 24.654 80 57 79
46.4096 12.6226 24.7219 76 45 79
45.4654 12.4338 24.7399 76 49 82
18.4341 12.2798 25.6989 101 64 108
1.1909 10.0835 26.1344 129 126 156
36.1274 12.0159 24.5633 73 51 105
19.7983 12.6226 25.2066 81 36 73
18.0503 11.8654 25.2057 86 41 78
1.60193 10.3678 25.6749 128 127 156
-2.89572 9.19333 25.7383 101 84 113
48.0012 12.3173 23.6779 92 69 81
46.4035 12.6228 23.7624 95 73 104
45.4593 12.434 23.7807 98 74 112
35.6007 12.1174 24.1138 91 71 108
18.1115 11.6078 24.7092 73 31 74
0.246218 10.0282 25.2267 128 125 158
47.5451 12.1574 23.2003 88 62 98
19.9225 12.1081 24.2134 70 30 71
0.629673 10.4406 24.7798 131 127 159
46.3974 12.623 22.803 83 47 89
45.4532 12.4343 22.8215 84 48 93
18.1055 11.608 23.7647 69 30 72
47.539 12.1577 22.2394 72 42 74
19.8513 12.3659 23.2937 71 28 73
-23.4799 9.1396 24.6307 133 130 157
46.3913 12.6232 21.8435 76 62 104
45.4471 12.4345 21.8623 74 59 103
19.946 11.9795 22.7835 72 29 75
-1.19922 10.0737 23.4114 130 127 150
-23.093 9.54698 23.7281 126 127 153
37.5679 12.1031 21.1746 102 100 124
-1.28647 10.4579 22.5135 128 127 149
45.8506 12.7252 20.4342 120 119 135
45.3954 12.5656 19.9575 123 120 137
-33.1235 9.07759 22.6886 100 91 105
-35.3999 9.06883 22.7763 110 101 124
54.2773 13.0905 18.697 119 114 125
51.0571 12.0992 18.731 117 115 125
46.0394 12.0717 18.9265 124 120 133
36.4271 10.8431 19.1904 122 119 131
-0.112567 11.5637 20.7002 130 128 146
-32.2438 9.25775 21.7517 83 78 110
-9.95273 8.91153 20.373 110 102 134
-33.1322 9.07792 21.3104 108 107 119
-9.95571 8.91164 19.9067 101 93 126
-32.2688 9.38396 20.8456 123 125 141
39.0107 12.1902 17.7808 123 121 131
-33.1381 9.07813 20.3916 132 130 149
48.5291 12.086 16.4249 97 97 124
39.0423 12.0601 16.8106 121 115 122
16.8577 10.621 17.5775 127 123 137
-2.38272 11.0419 18.4063 94 91 119
-9.96463 8.91197 18.5078 127 122 138
-15.1559 9.12235 18.7409 125 125 144
3.95875 10.2522 17.5999 125 124 137
1.85341 11.1657 17.7771 129 125 136
