ply
format ascii 1.0
element vertex 1353
property float x
property float y
property float z
property uchar red
property uchar green
property uchar blue
end_header
-26.3411 16.3964 25.2426 104 135 12
-28.5124 16.2384 25.1066 103 128 6
-30.6945 16.0796 24.9699 109 133 14
-31.8876 16.2295 24.915 117 149 19
-34.2809 16.5303 24.8048 134 174 35
-35.9804 16.8529 24.7357 120 156 13
-52.5399 18.8253 23.9641 155 179 23
-62.6145 16.1688 23.172 155 183 23
64.3218 2.83089 28.795 67 80 16
62.3561 8.15963 29.1327 56 77 13
61.5288 10.6313 29.2942 77 92 23
61.6589 11.4962 29.3746 77 93 23
57.0337 14.7482 29.3853 141 174 49
41.4005 15.7614 28.579 161 205 165
35.4309 16.259 28.2805 139 170 71
30.8766 15.762 27.9787 131 157 62
29.6567 15.722 27.9057 121 149 60
25.1807 16.7171 27.7344 111 153 38
24.1098 16.8589 27.6852 115 161 37
17.8521 15.9554 27.252 149 180 36
5.7478 16.1948 26.5816 150 181 34
0.632503 16.7543 26.337 157 181 31
-1.02804 16.3431 26.2076 152 179 27
-6.41331 17.3532 25.9856 108 129 28
-10.5573 16.412 25.6698 97 117 27
-11.9854 16.2772 25.5769 96 122 26
-18.4335 16.3547 25.2156 124 158 36
-23.891 16.8343 24.9448 100 142 9
-37.9941 16.8828 24.1443 147 161 25
-38.7004 16.8623 24.1023 148 163 32
-46.4147 17.39 23.7067 111 133 15
-47.3442 17.1753 23.6356 140 167 28
-48.6567 17.8912 23.6211 153 175 17
-49.6739 18.2394 23.5925 153 175 18
-51.1192 18.1998 23.5067 156 180 23
-64.0682 16.7929 22.6492 160 181 36
60.9974 17.5884 29.4203 139 167 40
36.2627 16.542 27.9079 117 156 36
32.0114 15.7077 27.5923 118 156 37
31.4034 15.6877 27.5556 123 159 40
28.5907 15.8581 27.4083 127 166 31
23.7814 16.4932 27.1856 143 173 34
22.7539 16.0204 27.0863 144 176 33
11.3648 15.5646 26.3921 149 180 35
3.25177 16.202 25.9796 154 181 30
-0.468008 16.2659 25.771 150 178 30
-1.86427 16.1322 25.6793 151 179 28
-19.6019 16.4984 24.6898 141 177 28
-20.7696 16.647 24.6353 124 154 13
-21.9397 16.7959 24.5807 134 167 24
-22.5256 16.8704 24.5533 137 172 27
-28.4192 16.3249 24.1677 138 174 18
-29.0127 16.3998 24.14 141 178 21
-35.8848 16.9399 23.7905 145 168 31
-41.628 17.3343 23.4937 126 156 28
-50.1859 18.409 23.0928 150 175 17
-62.6207 16.1594 22.1857 155 182 23
64.2458 2.73084 27.9019 67 76 20
61.3826 10.4451 28.3982 76 92 19
61.5628 12.7693 28.6083 79 98 22
61.4825 13.3641 28.6547 88 108 29
41.1669 15.4858 27.658 116 142 35
35.2697 16.0716 27.3661 120 166 25
28.1356 16.0143 26.9472 152 193 45
25.013 16.528 26.8101 146 178 32
13.483 16.5179 26.1402 150 175 33
12.3392 15.9482 26.0249 149 175 33
5.0104 16.0734 25.6103 145 178 25
-2.99686 16.2734 25.1628 148 175 23
-3.74369 16.1598 25.1097 147 174 34
-8.29178 16.7449 24.8961 95 133 9
-9.04742 16.6312 24.8425 99 140 12
-12.4731 16.4359 24.6269 109 149 6
-29.7093 16.3744 23.6214 144 172 30
-30.7997 16.6203 23.5793 130 151 27
-31.4956 16.5996 23.5371 119 139 17
-34.4848 16.9763 23.396 118 140 20
-37.8978 16.97 23.1974 108 127 19
-39.3109 16.9289 23.1119 92 116 19
-47.2445 17.2633 22.6802 127 151 11
-48.1546 17.708 22.6656 146 172 19
-49.5736 18.3272 22.6364 151 176 17
-50.5915 18.6756 22.6073 154 178 21
-63.4418 16.7058 21.6924 154 175 24
61.3798 10.4409 27.9617 78 92 18
60.9223 17.4937 28.5457 132 166 35
49.2724 15.5817 27.6984 110 150 54
42.5046 15.6993 27.3126 127 159 31
32.0847 15.7891 26.7106 146 178 36
30.3381 15.8192 26.611 155 179 35
29.728 15.7993 26.5735 149 174 32
28.5851 15.8496 26.511 143 173 26
24.7668 16.2526 26.3225 148 178 30
23.5311 16.213 26.2467 148 180 31
22.092 15.2846 26.0821 149 181 32
16.463 16.4298 25.8519 144 172 28
15.6256 16.8463 25.839 150 180 32
14.3658 16.8073 25.7619 151 180 25
11.4447 15.6478 25.4905 152 177 30
6.93733 16.1298 25.2685 150 178 28
3.6282 15.9357 25.058 156 192 37
-0.384298 16.35 24.8591 154 178 34
-1.60022 16.4026 24.7925 161 185 40
-2.81913 16.4552 24.7257 150 174 20
-4.78937 16.3945 24.6052 137 158 19
-16.0342 16.7802 23.9806 133 161 18
-17.9648 16.8139 23.8705 148 164 16
-22.3377 17.051 23.6351 123 145 33
-25.2722 16.78 23.4399 135 159 43
-28.5243 16.2202 23.2011 114 148 23
-33.9897 16.8003 22.9316 99 122 12
-36.6958 16.814 22.7744 116 146 24
-38.6068 16.9449 22.6739 98 123 15
-45.0956 17.32 22.3267 104 132 2
-62.5155 16.249 21.2145 154 175 16
-64.0774 16.7788 21.169 157 175 35
57.952 15.1901 27.7382 142 169 45
41.6805 15.4082 26.7971 139 174 30
36.0994 16.3508 26.5501 148 176 34
31.395 15.6749 26.2135 149 175 32
23.365 16.0275 25.7704 148 174 29
18.3839 15.867 25.4625 152 180 26
-3.4778 16.4306 24.2217 151 176 26
-9.23807 16.4349 23.8822 144 171 28
-11.9971 16.2594 23.704 145 169 29
-20.4896 16.9176 23.2604 121 141 24
-21.9486 16.7824 23.1625 106 124 22
-23.2181 16.8366 23.0923 103 123 24
-25.8647 16.8503 22.9373 106 125 24
-29.7152 16.3653 22.6678 104 133 16
-30.7058 16.7069 22.6391 117 141 25
-31.8976 16.8574 22.5819 143 159 37
-34.5919 16.8712 22.4242 95 127 12
-35.3946 16.7545 22.3666 95 128 8
-37.301 16.8851 22.2655 134 160 40
-48.2666 17.6017 21.681 132 151 8
-49.5797 18.3179 21.6661 153 173 15
-62.7047 16.7177 20.7519 154 177 15
60.6654 15.11 27.4585 121 154 34
53.1942 14.8505 26.9911 130 162 29
49.5607 15.9261 26.8696 145 170 36
48.0966 15.5339 26.748 137 169 30
44.4254 15.9274 26.5642 144 173 31
43.8345 15.9078 26.5273 146 176 34
42.499 15.6909 26.4287 142 172 27
37.4519 16.5636 26.2053 143 176 27
32.8993 15.3711 25.8294 148 174 28
30.3325 15.8107 25.7154 146 177 31
29.0314 15.6806 25.6265 147 171 29
28.0471 15.9113 25.5883 139 164 19
27.5945 16.0719 25.5755 145 171 24
25.6205 16.5346 25.4988 149 172 28
24.68 16.1535 25.4093 147 170 27
22.1685 15.367 25.1906 144 171 24
16.9177 16.2586 24.9567 148 177 28
14.6529 16.4531 24.8391 150 176 24
3.71059 16.0195 24.1498 174 195 50
-2.17006 16.4666 23.8393 158 186 36
-4.70427 16.4789 23.6896 137 155 14
-5.9307 16.5319 23.6213 146 164 19
-19.3259 16.7644 22.8448 99 141 14
-20.005 16.7441 22.8026 112 151 19
-22.6344 16.7575 22.6473 89 123 17
-24.9846 17.0562 22.5338 96 127 21
-32.2967 17.1197 22.1043 128 156 13
-33.4914 17.2707 22.0465 111 135 1
-35.2961 16.8461 21.9018 119 142 7
-39.217 17.0117 21.6831 130 159 10
-49.2866 17.9451 21.1661 153 172 19
-50.198 18.3905 21.1511 154 177 14
-57.9116 17.801 20.6403 154 173 9
-59.0856 17.3881 20.5341 153 173 9
47.946 15.3528 26.2841 141 169 32
41.4598 15.825 25.9369 146 171 29
38.6462 16.5978 25.8368 146 173 28
31.5476 15.8463 25.3442 140 169 22
24.7584 16.2397 24.9719 146 170 26
20.7934 15.8479 24.6992 148 177 30
17.9186 16.0207 24.5421 152 175 27
13.0469 16.0427 24.2518 150 171 24
12.3278 15.9308 24.1987 148 171 22
11.5217 15.7267 24.1323 150 175 22
3.70771 16.0151 23.6891 162 182 33
-0.188257 15.8924 23.4445 151 173 18
-3.39313 16.5149 23.3075 156 172 28
-17.2024 16.915 22.5147 102 115 28
-21.1761 16.8884 22.2739 107 133 7
-23.2241 16.8275 22.1457 107 126 11
-24.3991 16.9769 22.0884 95 121 3
-30.316 16.4313 21.685 134 160 9
-33.293 17.4575 21.5976 128 157 4
-34.2946 17.15 21.5102 130 160 6
-37.2048 16.9723 21.3198 138 154 5
-42.4581 17.1943 21.0244 150 167 11
-50.5208 18.0948 20.6207 154 174 18
-60.8956 17.0466 19.9053 153 174 12
-62.4883 16.9059 19.7972 158 177 17
60.8512 16.7166 26.7477 136 166 34
49.3349 15.6532 25.9561 145 172 29
47.2082 15.1515 25.7825 143 170 28
43.7538 15.8107 25.6326 144 174 30
42.4935 15.6824 25.5449 146 167 29
37.9684 16.4854 25.3431 149 173 25
35.9943 15.5529 25.1403 151 174 26
32.6805 15.792 24.9613 149 174 34
32.3101 16.0415 24.9612 147 173 35
29.0258 15.672 24.7295 143 172 22
27.5086 15.9731 24.6647 145 177 22
26.1493 16.4554 24.6256 148 175 23
22.4912 15.7222 24.3388 143 175 17
10.4173 15.8655 23.6214 151 172 19
4.52667 16.2161 23.2965 141 167 15
-4.05257 16.4903 22.8022 134 149 26
-6.39368 16.0556 22.6217 97 125 14
-21.764 16.9584 21.773 128 152 0
-31.1104 16.9599 21.2078 139 159 1
-36.6058 16.892 20.8694 152 164 8
-37.2078 16.9677 20.8398 149 162 6
-38.0152 16.8508 20.7805 150 167 9
-46.8576 16.9693 20.2563 153 174 13
-49.2926 17.9359 20.1956 154 170 11
-50.0144 17.9159 20.1501 156 173 13
-57.9493 17.1255 19.5995 154 171 13
-61.8608 16.8236 19.3359 158 174 14
-63.1226 16.9789 19.2735 159 173 21
60.8767 14.6805 26.1339 103 124 16
48.3789 15.1874 25.4177 145 169 28
38.1027 15.9658 24.8614 146 172 22
35.4666 15.6182 24.6694 149 173 24
31.9369 16.2869 24.5145 152 180 34
30.1118 16.2281 24.3979 150 175 25
28.571 15.8282 24.2679 141 170 18
27.5861 16.0591 24.2287 154 184 26
25.5312 16.4315 24.137 148 171 19
23.1903 15.8289 23.9399 146 170 20
19.5791 16.5069 23.7809 153 176 28
18.6223 16.1232 23.688 150 173 22
17.3694 16.0832 23.608 145 173 14
15.3149 15.84 23.4608 145 170 15
11.4304 15.626 23.2046 147 173 14
4.34803 16.0268 22.809 145 172 14
-0.194041 15.8836 22.5191 151 175 22
-3.30849 16.5991 22.3938 154 170 31
-7.33334 15.7494 22.0718 94 122 6
-12.4907 16.4091 21.8169 106 137 5
-13.4551 16.7446 21.7883 124 160 24
-19.1431 16.94 21.4592 113 143 0
-20.4052 16.9942 21.3871 135 171 7
-20.8928 17.1633 21.3727 137 171 4
-22.6433 16.744 21.2281 140 169 5
-30.4184 16.9757 20.775 147 169 4
-31.7092 17.0306 20.7012 148 168 10
-35.5081 16.64 20.4344 153 172 15
-46.8606 16.9647 19.7715 153 171 7
-48.3847 17.4861 19.7257 150 170 12
-51.7858 17.579 19.5267 152 173 10
-52.5117 17.5586 19.4806 147 168 7
-56.5935 17.0643 19.1871 150 170 18
-58.688 17.1 19.0626 149 172 24
-60.9018 17.0372 18.922 152 172 18
-63.981 16.8543 18.7178 158 173 30
60.3741 14.7438 25.6757 122 148 24
57.9323 15.8493 25.6262 137 161 24
43.3071 15.9601 24.7375 149 179 31
42.1215 15.921 24.661 144 171 20
41.0087 15.9706 24.5972 143 173 17
27.211 16.3056 23.7797 150 176 22
26.3051 16.6272 23.7532 147 171 16
9.22159 15.9082 22.6379 152 177 12
4.25718 15.9298 22.3348 148 173 11
3.52269 15.8167 22.2794 148 174 10
3.14042 16.0742 22.2793 148 173 10
-3.13067 16.7807 21.9582 149 173 19
-6.2165 16.2338 21.7188 106 136 4
-7.90706 15.818 21.577 107 143 5
-36.5099 16.9791 19.9248 152 167 11
-37.2138 16.9585 19.8797 151 166 12
-44.9221 16.828 19.394 152 168 5
-45.6386 16.8072 19.3481 152 167 5
-49.405 17.8295 19.2097 137 152 8
-50.0205 17.9066 19.1788 147 161 12
-65.548 17.3801 18.1766 141 150 71
47.861 15.2475 24.5135 143 166 25
36.3739 15.9876 23.8697 144 170 18
35.5389 15.6994 23.7916 146 171 20
28.7254 16 23.3971 140 160 19
25.5256 16.4229 23.2376 145 169 15
15.2248 15.7398 22.5369 150 175 14
14.7628 15.9027 22.5232 149 171 12
10.3227 15.7604 22.2351 151 179 17
4.16633 15.8328 21.8604 150 172 10
-14.709 16.7893 20.7788 146 168 10
-15.5705 16.5807 20.7063 148 169 11
-16.1495 16.6547 20.6772 147 167 8
-19.4365 16.6473 20.4729 143 162 6
-20.0198 16.7216 20.4436 145 166 7
-24.018 16.6941 20.1934 156 176 11
-25.195 16.8435 20.1342 148 166 2
-30.8235 16.5839 19.7617 148 170 7
-31.8154 16.9258 19.7316 149 171 12
-32.7077 17.3638 19.7165 149 169 12
-35.4125 16.7271 19.4906 152 169 10
-48.8992 17.6508 18.7398 117 137 12
-50.8533 17.7847 18.631 133 151 20
-52.4103 17.6469 18.5219 134 146 24
-53.5412 17.8989 18.475 125 130 24
-57.9585 17.1115 18.1291 118 122 17
-58.6942 17.0906 18.0817 109 117 12
-59.6512 16.8729 18.0024 107 119 10
-60.7973 17.1264 17.9546 120 147 9
60.7284 14.4931 24.8082 102 125 14
59.7112 15.986 24.8826 136 158 22
57.2119 15.6469 24.6952 140 160 23
46.3859 14.8484 23.9455 143 165 29
45.2813 14.8967 23.881 155 177 36
43.1508 15.7742 23.829 155 180 30
42.1159 15.9125 23.7772 147 174 18
41.0031 15.9622 23.7123 143 167 21
33.5109 16.064 23.2539 145 169 40
27.366 16.4773 22.9085 143 168 20
26.833 16.5479 22.8817 144 167 15
25.6037 16.5089 22.8014 144 168 10
23.1001 15.7252 22.5726 142 171 12
19.6535 16.5848 22.4369 143 165 10
18.7802 16.2923 22.3553 146 169 13
17.9044 15.9991 22.2735 147 173 16
11.0426 15.8684 21.833 143 167 18
9.30212 15.9915 21.7357 164 190 33
3.51693 15.8079 21.3575 153 171 11
-6.13088 16.3184 20.8023 149 166 4
-7.72882 15.9966 20.6728 142 165 2
-18.9526 16.474 20.0162 148 166 6
-20.6065 16.7915 19.9422 151 170 6
-21.1908 16.8659 19.9126 153 172 9
-22.3567 16.3711 19.7941 152 171 10
-24.7069 16.6691 19.6749 153 168 12
-25.7874 16.9138 19.63 151 167 10
-33.2073 17.5304 19.2238 152 167 18
-49.0085 17.549 18.2389 92 128 4
-51.0701 17.5854 18.1135 89 124 7
-58.917 16.8892 17.5593 78 115 0
-64.214 16.6422 17.2057 153 167 33
-64.5113 17.0169 17.2218 163 173 61
-65.0326 17.1937 17.2056 156 163 75
40.5573 16.1163 23.2568 147 162 24
39.8086 15.9187 23.1913 142 157 19
39.3646 16.0773 23.1781 140 155 17
38.6135 15.8793 23.1124 146 161 22
37.415 15.8399 23.0333 146 159 20
36.2133 15.8003 22.954 147 155 26
33.1382 16.3089 22.8079 135 146 36
31.9257 16.2698 22.7279 114 125 23
17.0233 15.7007 21.7371 146 167 15
15.0503 15.5479 21.5987 164 188 25
14.0408 15.7821 21.557 144 166 13
12.4812 16.0882 21.4874 149 174 17
10.4889 15.9357 21.3478 141 166 20
6.09451 15.8854 21.0666 148 169 9
5.36318 15.7725 21.0101 151 170 11
3.39657 16.3388 20.9391 151 168 10
-16.925 16.531 19.6782 148 166 8
-18.9555 16.4696 19.5447 148 166 4
-19.5384 16.5437 19.5149 151 169 5
-29.7391 16.329 18.853 149 164 12
-30.8295 16.5748 18.8073 145 161 16
-31.9215 16.821 18.7615 140 154 20
-35.5201 16.6218 18.5165 130 142 13
-36.4171 17.0615 18.501 136 150 22
-48.6089 17.2732 17.7536 98 135 3
-49.5204 17.7185 17.7377 88 121 0
-51.7979 17.5604 17.5796 98 119 0
-52.9279 17.8123 17.532 92 115 0
-59.03 16.7861 17.0524 108 134 0
-64.6264 16.9133 16.7121 162 168 47
59.776 16.0648 24.0288 138 159 16
57.2775 15.726 23.8385 139 159 19
43.296 15.9433 22.9723 127 147 28
42.1861 15.993 22.9065 140 157 39
41.0736 16.0427 22.8407 136 158 39
39.5148 16.2511 22.7614 126 146 32
38.1658 16.0339 22.6554 128 141 33
26.8274 16.5394 21.9838 144 166 10
23.2579 15.8981 21.6973 145 166 20
22.2637 16.1303 21.656 156 179 35
19.7306 16.667 21.5458 145 164 10
18.8576 16.3747 21.463 146 164 11
16.9367 15.6049 21.2689 147 160 11
13.5751 15.9408 21.0872 140 159 7
13.027 16.0123 21.0592 147 167 12
11.2083 16.0435 20.9468 144 166 10
10.1067 16.187 20.8904 142 161 8
9.17555 16.5145 20.8621 148 169 9
4.97877 16.0252 20.55 150 169 8
0.53241 15.975 20.2633 152 170 12
-15.0008 16.4934 19.3269 146 163 5
-21.1967 16.8569 18.9681 152 167 17
-24.7129 16.6601 18.7266 127 138 5
-28.6533 16.079 18.4222 144 154 15
-32.5214 16.8917 18.2532 124 125 19
-32.9176 17.1587 18.2531 120 122 20
-33.5153 17.2342 18.2223 113 117 14
-50.5659 17.4018 17.1567 101 141 0
-57.8582 17.1957 16.6749 149 160 2
-59.8473 17.33 16.5614 151 164 5
-65.1509 17.0854 16.2021 153 148 60
60.8983 11.9249 23.2763 81 94 8
49.2422 15.5357 22.873 113 129 16
45.7136 14.7265 22.5709 127 143 20
40.704 16.2856 22.3983 100 116 35
17.8959 15.9861 20.9123 146 162 7
14.0351 15.7734 20.6455 142 160 9
6.81871 15.9894 20.2048 147 162 5
5.15126 16.2057 20.1187 150 165 10
-0.300846 15.7641 19.7285 153 169 8
-1.72195 16.261 19.6846 145 165 3
-6.06855 17.0315 19.4798 152 169 8
-15.6769 16.4685 18.8125 150 157 8
-19.6402 16.44 18.5565 138 148 19
-20.2238 16.5143 18.5262 138 146 17
-23.5396 16.5064 18.3136 119 137 26
-25.4027 16.6351 18.2067 113 133 16
-26.2873 16.4238 18.1302 118 138 20
-29.8446 16.2241 17.8839 120 138 17
-30.9354 16.4699 17.8375 96 114 7
-31.9275 16.8119 17.8064 94 120 10
-36.719 17.4164 17.5574 98 119 5
-37.2186 17.5883 17.5417 97 117 1
-38.5257 17.6443 17.4635 97 117 0
-48.615 17.2639 16.7827 124 150 0
-52.5299 17.5308 16.5578 140 161 0
-53.7691 17.6853 16.4932 143 160 1
-56.6907 17.6038 16.2988 147 165 0
-58.0486 17.661 16.2174 152 167 1
-60.1472 17.6978 16.0868 154 167 4
-65.7881 17.1587 15.6753 135 123 50
59.2004 16.0375 23.124 138 158 16
57.201 15.6303 22.9564 138 159 13
48.7284 15.6001 22.4079 89 101 10
42.2562 16.0733 22.0363 90 100 15
40.0294 16.1731 21.9024 89 106 36
38.7587 16.045 21.8083 73 94 11
36.36 15.9664 21.6464 79 101 12
28.5275 17.1089 21.2509 142 157 14
27.1434 16.891 21.141 144 163 6
23.2523 15.8895 20.7949 146 165 9
22.422 16.3031 20.7809 133 154 0
20.9701 16.6974 20.725 145 161 6
18.7688 16.2751 20.543 147 163 7
13.5694 15.9321 20.1755 138 157 9
13.0213 16.0036 20.147 141 159 11
12.4726 16.0752 20.1185 145 161 13
9.16983 16.5058 19.9468 135 154 19
6.17322 15.9647 19.7023 142 159 16
5.61725 16.0368 19.6733 142 160 20
4.20993 16.5305 19.6298 140 157 21
2.71227 16.9327 19.5717 142 163 11
-18.5733 16.1926 18.1304 116 120 9
-23.6399 16.4068 17.8246 96 111 13
-25.0122 16.3654 17.7323 86 107 1
-32.0308 16.7115 17.3133 92 120 2
-32.9236 17.1496 17.2975 90 123 0
-33.5212 17.2251 17.2663 96 129 0
-34.3215 17.1089 17.2037 112 136 1
-35.1233 16.9926 17.1409 132 154 16
-35.622 17.1642 17.1252 112 131 2
-40.9601 17.2904 16.7934 130 154 6
-46.8819 16.9323 16.378 146 163 0
-47.6011 16.9115 16.3297 145 162 0
-50.8927 17.1001 16.1357 150 166 1
-53.9881 17.4853 15.9731 152 164 4
-56.5848 17.697 15.826 150 166 2
-59.7433 17.4189 15.5961 154 167 6
60.9632 12.005 22.4182 78 91 4
41.7356 16.1384 21.5676 85 112 14
39.583 16.3274 21.4461 83 117 13
35.8332 16.0319 21.1744 88 127 2
26.5272 16.8674 20.6508 147 162 7
15.1234 15.6222 19.7913 144 153 7
14.0294 15.7647 19.734 138 151 14
11.2853 16.1222 19.5903 133 144 12
10.735 16.194 19.5614 134 148 19
4.08931 17.0599 19.2134 110 130 7
-5.41559 17.0424 18.595 129 145 11
-15.9777 16.8163 17.8879 102 124 7
-19.1589 16.2622 17.6283 81 106 3
-22.6626 16.0632 17.3818 90 120 4
-24.3285 16.3816 17.3043 86 121 3
-26.49 16.2239 17.1489 85 128 1
-29.8506 16.215 16.93 108 136 2
-30.9413 16.4608 16.8828 111 132 0
-32.4299 16.9738 16.8355 133 147 0
-35.5236 17.2556 16.6619 140 155 0
-36.6232 17.5033 16.6143 136 155 0
-38.7368 17.4428 16.4714 138 158 0
-41.5696 17.3619 16.2798 143 162 1
-48.0065 17.178 15.8444 148 162 0
-49.0236 17.5259 15.8119 152 163 0
-50.7887 17.193 15.6654 149 162 0
-54.3155 17.1873 15.436 151 167 2
-55.154 17.0686 15.3702 150 166 4
-57.6486 17.378 15.238 153 167 4
-58.3834 17.3573 15.1884 151 165 4
-60.0769 17.1192 15.0556 153 168 7
-63.5225 15.9679 14.7214 156 169 2
49.381 15.6997 21.5837 73 92 3
48.7966 15.6801 21.5435 72 91 5
43.8766 15.946 21.2476 88 104 0
42.8435 16.0844 21.1935 96 119 1
37.0327 16.0669 20.8119 114 147 1
27.4295 16.5418 20.23 147 163 8
22.3344 16.2038 19.8642 128 147 11
21.7959 16.2747 19.8359 132 148 13
19.4708 16.3772 19.6938 138 152 18
18.68 16.1754 19.6226 140 152 23
17.2603 15.953 19.5082 137 149 24
16.6323 15.9329 19.4652 137 150 23
13.5637 15.9235 19.2637 111 128 6
12.9305 15.9032 19.2204 116 132 13
12.4669 16.0665 19.2059 118 133 16
6.16748 15.9559 18.7833 113 122 9
4.29204 16.614 18.7244 99 115 2
3.17668 16.759 18.6655 101 122 0
-7.14202 17.8902 18.1004 110 115 13
-14.1522 16.6842 17.5254 104 113 8
-16.7497 16.6973 17.3569 116 130 7
-20.3289 16.406 17.0947 92 109 0
-23.7432 16.3026 16.8614 97 125 0
-25.116 16.2611 16.7677 106 138 0
-28.3678 16.348 16.5635 117 137 0
-31.4403 16.6272 16.3896 136 154 0
-32.9296 17.1405 16.342 143 159 0
-33.4265 17.3117 16.3261 143 157 0
-34.0246 17.3874 16.2943 146 160 0
-40.9661 17.2812 15.8302 147 162 0
-51.8383 16.8748 15.0801 150 163 1
-52.3499 17.0494 15.0635 150 164 0
-55.7797 17.1412 14.8482 147 163 0
-56.6998 17.5898 14.8314 152 167 1
-60.5978 17.2905 14.5477 151 166 0
-65.3877 16.8686 14.1937 155 164 66
57.2639 15.7053 21.6655 135 154 11
45.1208 15.3801 20.834 128 155 20
41.1358 16.1105 20.6427 124 150 4
37.5527 15.9931 20.3953 137 159 8
32.3582 16.0845 20.0621 141 160 9
30.6137 16.1152 19.9502 141 158 12
23.4072 16.0579 19.4699 124 140 14
15.202 15.7051 18.8951 107 119 7
14.0237 15.756 18.8224 112 134 14
12.0003 16.2254 18.7349 93 111 6
10.3502 16.4407 18.6472 99 110 12
7.18803 15.7154 18.3682 103 116 6
-21.0127 16.3808 16.5757 139 155 0
-22.4744 16.2444 16.4661 140 154 0
-24.2368 16.4678 16.3718 145 158 1
-31.5433 16.5268 15.8963 148 162 0
-32.6368 16.7731 15.8483 149 162 0
-33.5302 17.2114 15.8322 146 160 0
-34.5252 17.5542 15.8001 149 162 0
-51.9487 16.7724 14.5762 151 159 0
-53.0802 17.0239 14.5262 154 159 4
-54.4298 17.0801 14.4428 149 158 1
-57.3269 17.6627 14.3088 152 158 3
-58.6863 17.72 14.2248 154 158 4
-59.7525 17.4049 14.1239 152 160 2
-64.1237 16.7083 13.7681 156 169 20
-65.6881 17.2388 13.7168 148 160 75
49.0118 15.9363 20.7066 116 139 1
43.871 15.9376 20.3657 136 154 6
43.4301 16.0954 20.3519 136 153 5
42.7626 15.9872 20.297 137 156 8
42.2452 16.0565 20.2694 137 158 8
40.6902 16.2645 20.1867 135 156 5
39.6511 16.4036 20.1314 137 155 3
37.1816 16.237 19.9512 143 156 18
22.2468 16.1045 18.9472 110 126 18
21.1688 16.2463 18.8896 108 127 16
13.558 15.9148 18.352 96 125 1
11.5334 16.3844 18.2638 93 111 2
6.16173 15.9472 17.8644 112 131 2
4.11052 16.4206 17.7748 103 125 0
-14.064 16.7693 16.603 118 144 0
-15.5969 16.5404 16.4788 119 150 0
-17.3358 16.7624 16.3853 140 159 0
-18.2028 16.5532 16.3072 139 160 0
-19.0719 16.3434 16.2289 140 161 0
-20.3348 16.397 16.1504 143 161 0
-23.6517 16.3887 15.9295 146 163 0
-24.2398 16.4632 15.8978 146 163 0
-27.4846 16.5507 15.691 144 158 0
-28.5704 16.796 15.6431 149 167 0
-30.3548 16.3721 15.483 147 162 0
-35.2284 17.5297 15.2734 154 163 0
-36.3271 17.7772 15.2248 153 161 0
-38.5407 17.6215 15.0626 149 161 0
-45.0391 17.3432 14.604 153 160 6
-48.0156 17.1641 14.389 150 159 0
-52.5711 16.8446 14.0553 152 160 23
-54.5411 16.9776 13.9376 132 138 10
-56.706 17.5805 13.8532 135 140 14
-57.7358 17.9315 13.8194 143 143 19
-62.9737 16.4494 13.3262 158 167 9
58.7569 16.1719 20.9435 137 155 7
45.1901 15.4605 19.9662 137 154 12
43.4273 16.0912 19.9108 138 157 6
41.6488 16.0327 19.7861 136 156 11
40.7635 16.3492 19.7583 136 157 16
31.2167 16.1264 19.098 117 121 14
26.4354 16.7603 18.8412 106 118 15
22.0798 15.9187 18.4667 104 118 12
14.018 15.7474 17.9109 114 141 5
13.007 15.9819 17.8665 106 138 0
10.4303 16.5237 17.7479 107 138 0
7.35622 15.8912 17.4798 124 150 0
3.81401 16.7656 17.3296 125 145 0
-16.8535 16.5895 15.9306 145 160 0
-17.3387 16.7579 15.9149 148 160 0
-20.9222 16.4667 15.6465 153 164 0
-22.2864 16.4255 15.5512 149 162 0
-32.8438 16.5721 14.86 149 159 0
-34.8344 17.2577 14.7948 154 163 0
-36.4317 17.6768 14.7295 153 161 0
-37.9409 17.5408 14.6152 151 164 0
-48.3151 17.5277 13.9204 148 143 8
-51.9548 16.7631 13.6015 130 136 20
-55.3834 16.854 13.3813 100 123 6
-55.8977 17.0292 13.3642 103 127 10
-58.5828 17.8086 13.2619 99 121 4
-59.6485 17.4938 13.1595 107 125 1
-60.3862 17.4733 13.1081 139 155 13
-62.4201 16.939 12.9193 153 166 5
62.7319 7.91728 19.9553 45 56 0
60.9783 9.92042 20.0369 73 84 3
60.9591 11.2979 20.173 76 86 2
60.9815 14.8017 20.5238 105 120 2
59.7544 16.0318 20.5638 134 150 5
43.8655 15.9292 19.4837 125 140 5
42.757 15.9788 19.414 136 150 14
33.7964 16.3797 18.8506 97 119 9
30.526 16.0125 18.5937 87 110 5
23.2354 15.8637 18.088 99 123 0
21.5379 15.9851 17.9858 99 117 0
21.0808 16.1469 17.9711 107 119 1
4.28054 16.5965 16.8847 131 145 3
3.07691 16.6491 16.8089 142 155 12
-14.1639 16.6663 15.6497 147 161 0
-15.9923 16.7939 15.5393 148 162 0
-19.469 16.5979 15.2857 149 162 0
-21.5101 16.5365 15.1421 151 161 0
-23.5603 16.4748 14.9979 150 161 0
-24.1481 16.5493 14.9658 151 161 0
-33.2434 16.8348 14.3818 146 156 1
-33.7408 17.0061 14.3654 149 159 1
-35.3357 17.4247 14.2997 150 156 1
-38.0462 17.4401 14.1188 149 159 3
-45.15 17.237 13.6202 134 137 11
-52.6848 16.7374 13.063 112 112 13
-53.4129 16.7164 13.0119 100 103 6
-54.7639 16.7722 12.9265 89 104 0
-56.8211 17.4732 12.8579 84 108 1
-57.9606 17.7263 12.8064 93 115 0
-61.868 17.4273 12.5135 150 164 1
-62.165 17.8005 12.5307 147 165 4
-65.2485 17.62 12.305 149 160 71
60.8765 11.8916 19.7916 78 86 3
48.3452 15.8161 19.3357 131 144 22
42.8298 16.0633 18.9865 127 138 23
41.6432 16.0243 18.9021 116 122 20
32.2682 15.9777 18.2616 98 116 1
31.5819 15.868 18.204 95 114 1
31.2111 16.1178 18.2039 88 109 0
24.7134 16.1711 17.7686 108 134 0
22.0742 15.91 17.5634 111 140 0
13.0013 15.9732 16.9543 141 158 2
10.4246 16.515 16.834 136 148 5
6.88282 16.0467 16.5467 132 138 14
-12.7189 16.1584 15.2285 144 158 0
-20.9281 16.4577 14.7018 149 160 0
-21.6097 16.4371 14.6535 151 162 0
-25.3285 16.6941 14.427 150 156 3
-32.8498 16.563 13.9037 138 141 4
-34.6381 17.4403 13.8705 152 145 8
-35.9388 17.4959 13.7879 150 142 7
-46.7976 16.9972 13.0013 92 113 0
-52.7955 16.6349 12.5582 92 110 1
-55.3895 16.8447 12.4033 82 121 0
-55.9038 17.0199 12.386 97 133 0
-58.4793 17.8973 12.2994 126 146 0
-59.3247 17.779 12.2302 131 144 0
-60.282 17.5622 12.1435 146 158 2
-64.2831 17.8331 11.8993 152 165 63
60.9023 9.82285 19.1491 76 82 6
56.8899 15.9275 19.4925 136 150 7
47.2444 15.8611 18.8268 93 114 5
45.406 15.7138 18.6863 95 115 9
42.1585 15.9508 18.4885 90 112 6
41.5646 15.9313 18.4459 83 108 3
31.1292 16.0237 17.7424 108 135 0
28.0767 15.9245 17.5238 134 157 8
25.8125 16.7281 17.4504 135 150 0
19.205 16.0784 16.9333 136 148 8
14.8103 15.9378 16.6189 142 147 12
8.24858 16.1749 16.1946 94 116 1
2.9829 16.5479 15.8726 100 110 4
-3.23856 15.9941 15.3916 149 159 0
-11.9593 16.2686 14.8236 145 159 0
-13.2043 16.3217 14.7439 145 158 0
-16.093 16.6907 14.5839 149 157 0
-19.5708 16.4943 14.3265 152 158 0
-22.1015 16.6019 14.1645 144 153 0
-25.9211 16.7643 13.9199 140 147 11
-26.5113 16.8391 13.8872 124 134 4
-33.2494 16.8256 13.4255 108 121 6
-33.6459 17.0928 13.4255 117 128 15
-36.2374 17.8548 13.3255 115 125 13
-46.8006 16.9925 12.5167 98 110 0
-48.3242 17.5138 12.4653 95 116 0
-53.635 16.5111 12.0011 112 128 0
-54.7701 16.7629 11.949 109 134 0
-56.8272 17.4639 11.8794 131 156 0
-57.748 17.9128 11.8619 131 153 0
-61.1343 17.4386 11.5826 153 166 0
-62.8755 18.4387 11.5648 154 166 40
56.099 15.6415 18.9749 137 151 12
48.7037 15.5625 18.458 101 111 0
46.3572 15.4834 18.2885 96 113 2
43.9324 16.0052 18.1749 97 118 1
37.3221 16.3942 17.7597 114 133 0
36.7994 16.4639 17.7308 121 141 1
35.2286 16.6737 17.6441 111 139 0
33.788 16.367 17.5137 118 144 0
31.6553 15.9494 17.3245 124 150 3
25.648 16.5435 16.9717 137 154 5
24.253 16.3236 16.8533 136 151 6
21.6939 16.1538 16.6599 126 139 7
7.34475 15.8737 15.6441 93 115 1
4.91651 16.6033 15.5514 93 105 1
3.80251 16.7481 15.4895 95 106 1
-7.32637 17.0408 14.7536 145 154 0
-9.68353 16.6068 14.5472 147 157 0
-12.7248 16.1495 14.2913 144 156 0
-20.8375 16.5435 13.7733 143 152 5
-22.9819 16.3869 13.6098 133 140 0
-24.6477 16.7055 13.5276 136 136 5
-33.7497 16.9924 12.9306 90 112 4
-34.6441 17.4311 12.9138 88 108 1
-48.3272 17.5092 11.9803 103 126 0
-53.746 16.4084 11.4953 146 155 0
-55.5042 16.7372 11.4078 145 160 0
-58.4854 17.888 11.3199 151 161 0
-59.3308 17.7697 11.2497 150 162 0
-60.3985 17.4545 11.1442 151 164 0
-61.6201 18.2776 11.1439 153 163 5
60.8262 9.72523 18.2609 73 81 0
58.1012 16.0449 18.7205 135 152 6
43.2629 15.8928 17.6767 116 137 1
42.0773 15.8536 17.5905 113 135 0
27.4581 15.8961 16.5818 156 171 12
10.5018 16.5936 15.4784 84 111 0
2.59514 16.7965 14.9514 110 130 0
-11.6852 16.5416 13.9357 151 154 0
-13.8807 16.2922 13.758 148 149 1
-23.4748 16.5519 13.1198 102 120 2
-26.4189 16.9253 12.9541 107 113 1
-36.1509 17.2903 12.3172 117 134 0
-41.5967 17.3206 11.9429 124 139 0
-45.267 17.1216 11.6682 135 152 0
-52.4 16.3483 11.0946 151 161 0
-54.4791 16.3824 10.954 149 162 0
-55.7248 16.5362 10.8835 149 166 0
-56.8637 16.7886 10.8305 149 162 0
-59.9943 17.1755 10.6532 151 161 0
-61.6232 18.273 10.6529 150 160 0
60.3104 16.0303 18.4398 134 148 3
49.8667 15.5935 17.6659 123 142 2
48.2605 15.7111 17.566 112 135 0
47.8225 15.8681 17.5516 112 136 0
46.4261 15.5636 17.4227 119 142 1
45.8376 15.5437 17.3796 116 139 2
41.5564 15.9186 17.1196 124 146 2
39.0349 16.3547 16.9887 135 151 2
37.3166 16.3857 16.872 133 147 6
34.9895 16.3974 16.7108 136 149 8
33.0206 16.1598 16.5488 131 148 15
31.6498 15.9408 16.4306 145 160 31
28.5206 15.7512 16.1926 119 129 6
26.9219 15.9622 16.1028 129 146 9
7.25206 15.7727 14.7106 115 138 0
5.37946 16.43 14.6479 123 142 0
4.1783 16.4823 14.5695 115 142 0
-14.166 16.0049 13.24 130 132 12
-20.7471 16.6293 12.8453 101 115 6
-21.9168 16.7781 12.779 118 128 15
-24.1629 16.5267 12.5963 83 105 0
-25.2425 16.7712 12.5462 108 124 2
-28.4893 18.1522 12.4624 91 120 0
-33.7557 16.9833 11.9741 107 140 0
-34.7513 17.3261 11.94 114 146 0
-42.3107 17.2956 11.4094 151 161 0
-43.1268 17.1786 11.3403 150 160 0
-57.0852 16.5874 10.3052 151 164 0
-58.2267 16.8402 10.2516 150 161 0
-58.5237 17.2124 10.2694 154 164 0
60.8208 9.7169 17.3866 75 82 0
61.445 11.2068 17.5855 78 85 0
58.1665 16.1239 17.8667 136 151 4
42.665 15.8648 16.7504 140 151 8
41.1109 16.0726 16.6628 132 141 13
38.8021 16.0834 16.5017 137 143 8
36.3454 16.6103 16.3839 133 138 13
35.589 16.4125 16.3102 133 136 13
32.8607 15.9762 16.073 110 118 8
31.1972 16.0965 15.9686 124 134 17
27.5328 15.9778 15.6988 94 109 0
11.7669 16.6245 14.6582 132 150 0
10.9607 16.4214 14.5804 134 146 0
6.7814 15.9325 14.2358 142 150 0
3.52972 16.4579 14.062 144 153 2
2.32401 16.5103 13.9827 143 154 2
-13.9807 16.189 12.8035 73 100 0
-15.4199 16.0533 12.6882 86 112 1
-16.484 16.2953 12.6386 84 109 1
-22.7965 16.5634 12.2229 107 123 1
-23.3834 16.6379 12.1894 93 117 0
-28.4922 18.1477 11.9875 134 143 0
-36.2586 17.1852 11.3416 150 159 0
-48.4423 17.3983 10.5076 150 159 0
-55.8397 16.4286 9.88688 153 160 0
-57.7136 16.6599 9.77926 151 161 0
-58.3075 17.4041 9.81496 150 163 0
-61.5541 17.6944 9.61703 153 161 0
59.1577 16.6608 17.5599 136 150 2
57.6623 16.1878 17.4045 137 153 4
52.0433 15.4877 16.9336 136 156 3
37.2338 16.2881 15.9695 104 116 11
36.2652 16.5169 15.9249 106 121 10
32.7793 15.8822 15.6117 93 108 1
28.7549 16.0132 15.3407 89 105 0
28.0627 15.9031 15.2802 85 101 0
7.42018 15.9485 13.8242 139 151 5
5.54866 16.6057 13.7606 129 147 8
4.34831 16.6582 13.6812 134 148 12
-10.655 16.9235 12.6473 90 101 0
-21.826 16.8638 11.8506 122 144 2
-24.6596 16.6875 11.6316 121 146 0
-25.8378 16.8369 11.5639 138 158 0
-41.6058 17.3068 10.4973 154 165 0
-56.0605 16.2273 9.36137 154 162 0
60.8153 9.70857 16.5122 75 81 3
57.9488 15.8539 16.9563 135 152 0
47.4501 16.1009 16.2343 109 119 8
38.1214 15.9662 15.5554 94 106 4
35.3503 16.136 15.3759 84 104 0
34.7474 16.1164 15.3309 87 109 0
33.3823 15.8978 15.2105 94 119 0
26.5408 16.2003 14.755 114 143 0
11.2118 16.6876 13.7142 141 144 4
3.14215 16.7064 13.1412 109 117 7
-1.78977 16.8252 12.8023 148 156 0
-9.60555 16.6782 12.2299 96 116 0
-11.8983 16.9727 12.0976 98 121 0
-12.6598 16.8589 12.0314 100 125 0
-16.975 16.4547 11.6813 132 141 0
-20.6596 16.7106 11.4457 107 131 0
-22.8995 16.4593 11.2596 142 160 0
-23.4866 16.5338 11.2256 147 161 0
-48.2364 17.5832 9.57287 152 161 0
62.127 12.7628 16.4942 77 83 3
50.802 15.3517 15.9568 112 123 10
33.301 15.8038 14.7493 119 140 0
32.8523 15.9634 14.734 112 132 0
27.444 15.8747 14.3366 125 139 0
16.554 16.4953 13.6213 122 135 12
10.4875 16.5718 13.1942 110 120 5
5.16201 16.8536 12.842 100 116 6
-10.6608 16.9146 11.7134 124 141 0
-13.4257 16.7404 11.4965 129 148 0
-14.3785 16.4378 11.396 131 149 0
-20.9577 17.0644 10.9906 132 152 0
-24.6655 16.6784 10.6836 149 159 0
-25.9418 16.7327 10.5978 147 159 0
-60.5272 17.3281 8.1798 154 157 0
47.4446 16.0925 15.3562 94 109 1
40.7956 15.6999 14.8339 102 123 0
39.2354 15.9079 14.7435 121 141 3
38.0389 15.8685 14.6528 106 134 0
36.0243 16.2364 14.5467 120 142 0
27.3609 15.7801 13.8721 138 148 4
13.5238 15.8626 12.8814 113 121 1
11.1205 16.5873 12.7854 99 115 2
-12.5721 16.9438 11.1121 139 147 2
-15.9162 16.2036 10.7914 146 155 5
-16.8859 16.5402 10.7574 141 149 3
-18.6287 16.7625 10.6553 147 156 0
-19.4025 16.6476 10.5871 146 154 0
-22.8083 16.5454 10.3302 147 157 0
-23.3952 16.6198 10.2957 148 156 0
-26.7318 16.6123 10.0539 151 161 0
-27.2243 16.7825 10.0365 150 162 0
-29.7902 17.5393 9.93216 149 156 0
60.7365 9.60675 15.1859 75 82 0
44.7915 15.6563 14.6778 117 135 0
37.5138 15.9338 14.1785 150 158 1
37.1455 16.1819 14.1784 151 160 3
32.8467 15.9549 13.8414 138 143 12
28.6637 15.9059 13.5319 139 140 3
26.4518 16.0972 13.3916 101 120 0
17.6355 16.344 12.7771 89 108 2
16.1719 16.7403 12.7133 90 109 1
14.1532 15.8785 12.4737 88 111 0
10.3102 16.3797 12.2482 105 125 0
7.96282 15.8592 12.0215 111 132 0
4.60005 16.9172 11.8909 120 138 0
3.95546 16.8976 11.8419 121 138 0
2.57499 16.7657 11.7273 125 140 0
1.83872 16.6534 11.6616 134 145 0
-9.52182 16.7585 10.8468 130 141 0
-10.6667 16.9057 10.7794 133 144 1
-14.1961 16.6171 10.4917 121 140 9
-24.6714 16.6694 9.73554 147 158 0
-27.8189 16.8529 9.52642 150 157 0
-28.8055 17.1937 9.49136 154 160 0
-60.6439 17.2203 7.17893 154 160 0
-62.0128 17.2773 7.0855 154 159 0
-65.1311 18.3367 6.97283 132 149 73
60.0641 17.0925 15.5116 136 151 0
47.5131 16.1724 14.493 121 141 0
46.8526 16.0648 14.433 118 138 0
41.3092 15.6222 13.9792 135 147 1
40.3468 15.8498 13.9334 138 150 8
39.2298 15.8995 13.857 147 156 8
38.632 15.8798 13.8111 138 143 0
37.1428 16.1777 13.7344 145 154 10
36.465 16.0689 13.6729 144 153 9
34.5802 15.9204 13.5189 130 140 0
33.2926 15.791 13.4106 127 135 1
26.3683 16.0026 12.9266 93 110 0
11.0292 16.487 11.8561 108 134 0
7.95995 15.8548 11.5629 122 144 0
5.62174 16.676 11.4807 135 150 0
-2.90606 16.3226 10.8181 147 155 0
-12.3911 17.1224 10.2104 104 111 4
-16.4067 16.3629 9.83406 94 115 4
-19.7994 16.9021 9.64414 148 158 0
-20.7739 17.24 9.60944 152 160 0
-21.2615 17.4091 9.59208 149 158 0
-22.9154 17.0853 9.43588 150 156 0
-23.7938 16.8753 9.34881 150 158 0
-25.9507 16.7191 9.17396 148 158 0
-63.6853 17.7034 6.51811 143 153 42
60.8016 9.68773 14.3263 74 79 0
62.1161 12.7463 14.757 73 80 0
44.0453 15.4506 13.7203 124 128 1
42.861 15.4108 13.6287 142 148 8
37.9536 15.7665 13.3059 122 127 3
35.7054 15.8661 13.151 119 125 0
21.7841 16.9067 12.2386 87 107 0
17.2537 16.5888 11.87 107 126 0
16.3339 16.9137 11.8377 115 128 0
15.7897 16.9853 11.8054 130 141 0
13.5153 15.8496 11.5138 123 134 0
10.7693 16.2074 11.3505 137 152 0
8.85647 16.147 11.2029 143 153 0
4.76963 17.0927 11.0049 147 155 0
2.56923 16.757 10.8061 142 156 0
-0.921881 15.7483 10.4387 147 155 0
-1.48559 15.8208 10.4051 146 156 0
-10.3942 17.1775 9.89663 111 129 3
-12.7819 17.3793 9.74267 95 112 0
-14.968 16.4936 9.4849 101 113 2
-15.925 16.1901 9.38125 98 113 2
-17.3799 16.6952 9.32914 102 120 0
-20.3856 16.972 9.13783 146 157 0
-61.7219 16.8943 6.08289 153 161 0
62.0166 9.81999 13.9945 72 78 1
50.8613 15.419 13.782 130 144 2
49.6252 15.977 13.7516 129 145 1
47.5815 16.2522 13.6302 132 141 4
46.9212 16.1447 13.5694 127 134 8
43.6014 15.6042 13.2637 121 130 12
39.071 15.7127 12.9396 115 122 2
38.5497 15.7821 12.9085 128 137 13
37.06 16.08 12.8307 106 116 2
34.4965 15.8223 12.6122 125 139 8
33.9705 15.8921 12.5809 133 148 11
30.9372 15.7927 12.3449 92 100 0
21.6992 16.8119 11.7715 101 119 0
10.0438 16.0911 10.8276 142 152 0
8.30078 16.2146 10.7119 148 154 0
5.32263 17.0158 10.579 147 150 0
4.12255 17.0688 10.4957 150 157 0
-1.48849 15.8164 9.94186 145 156 0
-2.91185 16.3138 9.89092 146 153 1
-9.34572 16.9322 9.48154 120 126 0
-11.5431 17.3206 9.36118 87 110 0
-13.8289 16.9798 9.15416 104 121 0
-16.8976 16.5222 8.87622 115 136 0
-18.2499 16.4813 8.7714 123 140 0
-22.8243 17.171 8.50779 148 158 0
-61.6496 16.3183 5.53369 153 158 0
60.7962 9.6794 13.452 75 80 0
62.0408 12.65 13.8734 75 83 0
61.6805 12.8927 13.8734 78 85 0
59.8377 17.4947 14.2447 136 145 0
44.1899 15.6197 12.8688 91 104 3
43.0064 15.5802 12.776 100 108 7
41.3009 15.6096 12.6519 99 108 9
40.8579 15.7678 12.6363 91 104 6
36.3016 15.8774 12.3082 107 123 5
35.6222 15.7682 12.2454 94 112 1
30.4841 15.9485 11.8816 101 119 0
27.5878 16.0295 11.6743 122 140 0
17.0809 16.398 10.9304 140 150 0
16.3283 16.9051 10.9303 142 151 0
13.4246 15.7492 10.5856 141 153 0
11.6558 16.4938 10.5358 143 152 0
-6.70074 17.0074 9.22179 122 140 0
-7.54474 16.8009 9.13591 121 140 0
-11.6391 17.2226 8.8768 125 138 0
-12.6943 17.464 8.8247 136 147 0
-15.8361 16.2756 8.45863 137 150 0
-17.6715 16.4028 8.33565 142 152 0
-20.0003 16.6994 8.19452 149 153 0
-20.9754 17.0374 8.1591 152 158 0
-21.3668 17.3011 8.15903 148 156 0
-63.3234 16.7439 4.96413 160 154 22
59.835 17.4906 13.8127 134 144 0
49.6198 15.9687 12.8755 108 116 9
42.2593 15.3782 12.2565 97 107 6
36.4538 16.0519 11.8951 109 122 0
35.6971 15.8534 11.8161 103 117 0
34.0432 15.9732 11.7051 141 159 11
23.3064 16.5903 10.9667 131 140 1
22.851 16.7517 10.9504 133 146 4
22.4772 17.0035 10.9504 131 148 2
12.8735 15.8162 10.0963 145 151 0
9.1069 16.4098 9.87928 147 155 0
8.46807 16.3898 9.82904 148 155 0
-7.63951 16.703 8.65312 134 153 0
-13.5532 17.2525 8.26975 147 155 0
-16.4185 16.345 7.95335 146 158 0
-18.8377 16.5465 7.79394 148 152 0
-20.4907 16.8638 7.70502 150 156 0
-61.9531 16.6828 4.5682 152 158 0
59.9106 16.8985 13.3208 135 145 0
43.1517 15.7494 11.9241 87 109 0
41.2954 15.6011 11.7671 95 115 0
40.3329 15.8287 11.7198 101 128 0
39.0627 15.7 11.6092 118 136 0
38.0195 15.8389 11.5459 126 133 0
37.2061 16.2458 11.5299 116 132 0
33.1216 15.5902 11.1474 148 157 6
30.4785 15.94 10.9867 137 144 1
24.3762 16.4443 10.5815 136 134 5
11.1005 16.5569 9.58968 147 155 0
10.293 16.3535 9.5058 147 155 0
7.79225 16.9891 9.38781 147 154 0
-2.78342 15.1287 8.37923 151 152 0
-3.28206 15.9278 8.43103 146 152 0
-10.6842 16.879 7.97757 145 155 0
-11.8313 17.0263 7.9073 147 153 0
-12.7936 17.3615 7.87205 149 154 0
-14.6026 16.8523 7.67814 145 153 0
-17.0966 16.3199 7.4298 147 158 0
-19.5191 16.5215 7.26911 150 157 0
-20.8849 17.123 7.23316 150 155 0
-21.3727 17.2921 7.2152 153 157 0
62.0164 9.11293 12.1715 68 77 1
61.6436 10.0473 12.2485 71 78 0
60.788 9.6669 12.1405 73 79 0
59.6895 17.3092 12.9186 139 147 0
56.4905 15.4237 12.4624 137 142 0
48.8835 15.7646 11.9216 100 119 0
44.3318 15.7845 11.5772 113 130 0
42.4051 15.5477 11.4038 116 130 0
40.4826 16.0024 11.3087 116 134 0
35.9245 16.1132 10.9741 133 139 1
34.5635 15.8949 10.8459 125 132 1
33.9594 15.8751 10.7976 125 131 1
29.866 15.9158 10.4905 128 139 10
17.4487 16.1315 9.56929 144 150 0
16.5285 16.4564 9.53586 143 151 0
12.8678 15.8075 9.18393 144 151 0
-3.57929 16.2758 7.98433 143 153 0
-5.39127 17.0338 7.93183 144 153 0
-6.14116 16.9208 7.86198 143 152 0
-8.0315 16.9543 7.72182 148 150 0
-18.8436 16.5375 6.85151 149 156 0
-19.9131 16.7805 6.79747 148 154 0
-63.6299 17.104 3.50503 63 69 29
62.1653 8.59603 11.688 58 70 0
61.6696 12.8761 12.1358 72 82 0
61.6593 13.5582 12.2124 79 90 0
41.4418 15.7707 10.9141 132 144 2
40.4798 15.9982 10.8662 126 137 0
39.2104 15.8699 10.7543 133 145 0
38.0909 15.9197 10.6742 134 145 1
37.2005 16.2373 10.642 136 143 3
23.2979 16.5775 9.61515 84 95 0
22.4688 16.9906 9.5985 82 97 0
22.0131 17.1521 9.58191 85 102 0
21.4751 17.2233 9.54877 93 111 0
-2.81264 15.7529 7.52054 145 153 0
-6.34683 17.3621 7.43233 147 154 0
-7.30035 17.6954 7.39707 147 150 0
-8.80676 17.4703 7.25609 147 152 0
-16.322 15.7851 6.48888 150 154 0
-20.4995 16.8504 6.28963 148 156 0
-60.8482 15.7446 3.07192 116 121 21
-61.3675 15.9207 3.05211 106 109 17
-61.887 16.0969 3.0323 108 107 30
62.011 9.1046 11.2976 66 77 0
61.7085 10.128 11.3912 71 79 0
61.6566 13.5541 11.7785 80 90 0
47.6334 15.6286 10.9339 133 144 1
44.4762 15.9534 10.7275 134 137 2
42.6264 15.8059 10.5679 103 114 0
36.8296 16.4811 10.198 110 122 2
34.2453 15.5277 9.88978 101 110 3
25.6003 16.4706 9.33072 98 118 0
24.2865 16.3411 9.21459 97 114 0
16.439 16.3566 8.61111 143 147 0
-17.8769 16.1912 5.94556 151 159 0
-18.4587 16.2652 5.90913 151 159 0
-60.6299 15.9378 2.61922 86 99 22
-61.7791 16.1912 2.55953 77 84 26
62.1598 8.58769 10.8134 63 69 0
60.4071 16.1383 11.5453 132 145 0
58.0551 15.9746 11.344 133 145 0
48.8752 15.752 10.6059 133 145 0
43.8828 15.9296 10.2388 113 117 8
39.2815 15.9506 9.88406 109 112 9
37.3493 16.4071 9.78657 119 125 6
30.9969 15.8528 9.2298 90 104 1
29.4862 16.1532 9.14709 104 119 0
23.2923 16.5689 8.71411 114 134 0
22.9186 16.8206 8.71404 113 134 0
21.7157 17.4856 8.69712 125 144 0
17.7754 15.1545 8.12333 131 147 0
14.9696 16.7491 8.08885 142 151 0
-4.08561 17.06 6.6456 147 148 0
-16.5178 15.5868 5.51131 151 157 0
-65.7223 17.797 1.94632 142 163 80
62.0055 9.09627 10.4236 69 74 0
49.6033 15.9436 10.247 127 130 3
44.4707 15.945 9.84629 92 105 0
40.9146 15.8273 9.55492 96 105 3
40.5477 16.0745 9.55486 81 93 1
38.6043 15.8375 9.37566 80 103 0
36.9013 16.5618 9.32642 102 120 0
24.8977 16.3522 8.36463 136 145 0
17.563 15.5868 7.70322 140 148 0
16.2655 16.1655 7.66882 142 150 0
15.5961 16.7643 7.6858 143 152 0
14.9668 16.7447 7.63438 140 152 0
-4.06629 16.4243 6.11071 151 149 0
-61.3767 15.9066 1.57458 86 131 50
-62.5274 16.1601 1.51403 100 137 51
62.1544 8.57936 9.93888 61 70 0
48.3586 15.8123 9.69653 104 111 0
47.0385 15.5963 9.56763 117 125 10
43.8773 15.9212 9.35699 88 98 0
38.1568 15.992 8.91563 93 113 0
37.3438 16.3987 8.89907 116 134 0
33.6886 14.8857 8.43568 110 131 0
30.8328 15.6643 8.30186 120 142 0
24.4406 16.5089 7.89779 143 150 0
23.3682 16.6507 7.83 140 148 0
22.1657 17.3155 7.81286 143 152 0
21.5004 17.9091 7.82968 140 148 0
-4.8604 17.5693 5.7183 147 150 0
62.0001 9.08794 9.54968 65 74 0
61.1948 10.1771 9.61357 73 79 0
44.4652 15.9366 8.96511 93 116 0
41.7313 16.1051 8.76863 126 141 0
36.9729 16.6424 8.45526 133 145 0
33.0795 14.8609 7.93869 135 144 0
31.8095 15.4302 7.90493 127 140 0
29.9288 15.9802 7.82061 141 147 0
-65.2891 16.2623 0.323412 152 167 73
61.7129 13.6212 9.62483 83 88 0
61.9815 14.6512 9.76758 93 100 0
48.2794 15.7157 8.80271 99 114 0
47.033 15.588 8.68848 115 132 0
46.0062 15.7256 8.62298 112 128 0
45.0522 15.9519 8.57375 105 121 0
32.5484 14.9262 7.45789 136 146 0
30.9857 15.8358 7.44074 139 148 0
23.0706 16.9841 6.94624 143 146 0
22.16 17.3069 6.91183 144 151 0
-62.0167 15.9697 0.0559653 169 186 60
62.1462 8.56686 8.62705 64 73 0
62.0541 9.85922 8.77293 73 76 0
61.3302 10.3469 8.77281 75 76 0
62.0808 12.6925 9.11105 77 81 0
50.1753 15.9463 8.5437 117 136 0
37.3354 16.386 7.56783 140 144 0
34.6766 15.3429 7.23125 140 146 0
62.0781 12.6883 8.67674 75 80 0
61.7179 12.931 8.67668 78 84 0
48.3476 15.7956 7.94143 134 145 0
47.0275 15.5796 7.80931 134 145 0
45.3372 15.6089 7.67665 134 145 0
33.2846 14.418 6.56369 140 148 0
32.5428 14.9177 6.56357 142 149 0
31.959 15.5974 6.59764 139 147 0
61.9143 13.8719 8.37193 81 88 0
53.7229 16.1416 7.98054 130 142 0
50.969 15.5369 7.68476 137 141 0
43.4978 16.1466 7.15247 136 144 0
62.1863 10.0249 7.49675 72 75 0
61.7333 11.5543 7.64451 73 76 0
49.364 15.65 7.13062 134 145 0
45.4064 15.6891 6.81266 137 146 0
31.2911 16.1782 5.72089 145 150 0
61.3197 15.2016 7.61911 101 112 0
57.5999 16.0927 7.42228 136 142 0
50.7445 15.2641 6.75932 136 144 0
63.6444 11.8734 6.5387 70 75 0
63.3539 12.2041 6.55523 71 74 0
59.0197 16.4707 6.72003 133 144 0
61.4585 14.6813 5.83768 95 100 5
60.3107 15.3202 5.82075 123 131 2
58.6551 16.7045 5.8539 131 142 0
64.0527 12.3895 5.33765 67 73 0
63.4126 12.2756 4.83619 69 73 0
62.9017 13.0242 4.88699 70 74 1
61.3832 14.5857 4.95448 78 77 17
58.3677 16.3484 4.92011 133 145 0
60.2325 15.2205 4.50404 58 63 0
63.6281 11.8485 3.93404 65 68 0
63.1169 12.5978 3.98548 69 70 2
57.7199 16.234 3.98456 134 139 0
62.1046 13.4087 3.56874 27 26 0
59.7272 15.2799 3.60284 58 58 2
56.1357 17.0255 3.51593 126 124 2
61.1627 14.3068 3.16956 22 30 7
64.0625 10.9974 2.56178 33 29 3
63.4686 12.343 2.6841 45 39 11
62.1689 13.4882 2.71877 25 31 6
59.3622 15.5139 2.73574 35 41 1
57.2811 16.3769 2.66558 103 91 34
61.0873 14.2109 2.28497 35 38 14
60.0786 15.0252 2.30234 31 40 8
56.1987 17.1001 2.23148 72 76 43
63.9052 11.497 1.74586 27 34 5
62.0239 13.3044 1.81622 24 25 1
59.2864 15.4183 1.85105 47 58 1
57.1338 16.1942 1.76238 70 74 23
64.1932 11.1618 1.2939 42 56 29
61.0819 14.2027 1.41774 21 43 25
60.1434 15.1043 1.45304 32 59 24
62.0883 13.3839 0.966448 50 70 34
61.2289 13.6932 0.930596 49 69 36
57.4064 17.2114 1.05476 110 141 44
61.6457 14.2148 0.60436 94 113 53
60.9969 14.7865 0.622154 100 121 55
59.7082 15.251 0.568192 117 138 63
63.4277 13.6803 0.261275 106 126 54
62.2114 14.2311 0.22512 103 126 55
60.7048 15.1117 0.206876 116 140 63
59.3382 16.1669 0.224629 139 162 68
63.2047 14.0929 -0.135485 118 136 62
61.3408 15.2145 -0.15386 123 142 68
60.1154 16.4424 -0.0999416 139 156 68
60.1086 15.2311 85.0312 68 79 46
59.2467 15.4862 85.0346 70 80 52
61.3174 14.6907 84.5862 67 77 44
60.1057 15.2273 84.5895 70 82 48
59.2979 15.585 84.5918 72 85 49
63.0898 14.28 84.1372 66 76 47
62.7927 14.6642 84.1364 69 78 50
60.9106 14.8657 84.1456 73 82 50
-62.9376 15.3321 84.8289 77 87 57
63.4374 13.9945 83.6955 71 81 47
62.2796 14.6337 83.698 70 83 52
61.4188 14.8885 83.7011 70 86 51
59.2921 15.5773 83.7084 80 93 45
58.7797 15.551 83.7112 80 90 44
58.5899 16.1362 83.2674 99 134 93
-61.3425 15.0726 83.8516 96 123 94
-62.4174 14.4785 83.8595 95 120 83
-62.8536 15.4365 83.8572 72 81 39
62.1967 13.5202 82.8198 88 115 102
58.6383 16.2309 82.3839 183 252 231
-62.7697 15.5408 82.8859 77 84 20
61.1388 14.359 81.9372 33 39 35
-60.281 15.6521 82.3911 177 240 218
-61.7956 15.2564 82.3977 188 244 192
62.0808 13.3022 81.4935 21 33 26
58.795 16.5301 81.5001 156 207 191
28.6327 13.7774 81.6067 153 201 183
-60.8166 15.7316 81.9086 162 218 189
-62.0621 15.674 81.9129 165 219 166
-59.666 15.6725 81.4208 157 216 191
-61.712 15.3607 81.4272 151 208 185
61.5878 14.2714 80.6099 20 43 45
28.8152 14.0869 80.6982 148 199 173
25.2416 15.1348 80.708 146 204 183
-58.8703 15.9216 80.9348 158 216 198
-60.823 15.7231 80.94 154 207 187
-63.7604 15.8043 80.9479 147 180 142
-65.5354 16.5903 80.9528 37 56 26
61.2063 15.4469 80.1701 101 142 134
30.5155 15.1922 80.2416 150 204 180
-23.1857 16.1979 80.3681 152 206 189
-24.2024 16.3608 80.3707 155 211 189
-42.9429 15.9053 80.414 156 208 187
61.4461 14.9566 79.7276 100 139 129
60.9073 15.8265 79.7302 129 173 155
31.0501 15.2154 79.7883 148 202 178
30.0367 15.2663 79.7904 146 201 175
-9.45227 15.7997 79.8697 150 206 184
-11.8801 16.311 79.8754 154 209 179
-13.9089 15.7948 79.8785 153 205 189
-19.4843 15.8431 79.8896 156 213 187
-19.8368 16.142 79.8909 156 213 187
-24.7143 16.4382 79.9011 155 211 189
-26.6362 16.1363 79.9044 158 214 188
-30.535 16.2702 79.9123 153 208 178
-31.1281 16.2423 79.9134 152 207 180
-45.1163 16.1209 79.941 154 214 184
-55.3431 15.8607 79.9608 154 213 181
-57.6363 16.7255 79.9669 156 212 189
-64.0388 15.4576 79.9773 165 211 156
-65.724 16.3568 79.9822 65 77 52
64.0159 11.2738 79.2725 76 103 87
61.1468 15.3367 79.2877 122 166 149
46.1986 13.7539 79.3079 146 199 172
45.9051 14.1439 79.3094 145 198 169
44.3868 13.2524 79.3095 147 196 173
43.5662 14.5292 79.3142 146 198 172
24.1462 15.0684 79.3472 150 200 172
22.5127 14.9863 79.3496 149 199 174
7.23926 15.3603 79.3754 152 202 183
1.13121 15.1634 79.3849 152 202 180
-12.5335 16.1712 79.4097 152 209 183
-20.8525 16.3004 79.4236 154 206 190
-21.4365 16.2728 79.4244 153 206 191
-23.1141 16.2988 79.4272 155 208 187
-25.462 16.1879 79.4308 155 210 192
-27.0708 16.3233 79.4337 156 208 188
-31.8859 15.9905 79.4407 153 210 185
-33.4284 16.2365 79.4439 154 208 187
-39.4965 15.8452 79.4527 151 204 188
-40.0984 15.8169 79.4536 150 204 187
-41.1373 15.9818 79.4557 153 206 189
-42.5123 15.7035 79.4573 158 209 192
-43.0333 15.7861 79.4583 156 207 190
-44.4286 16.2559 79.4618 151 205 184
-54.0265 16.0255 79.4768 156 213 193
-55.1706 16.0803 79.4788 155 212 188
-62.2584 15.4276 79.4886 153 211 183
