ply
format ascii 1.0
element vertex 1356
property float x
property float y
property float z
property uchar red
property uchar green
property uchar blue
end_header
-12.486 27.5046 124.594 166 237 213
13.1445 26.7344 123.1 122 81 18
-5.84592 27.6354 123.843 119 198 64
-10.6817 26.5174 124.097 139 224 126
30.6188 13.0511 122.579 50 87 18
12.6612 28.0349 122.605 155 108 41
-5.75076 28.2531 123.346 122 202 71
-6.19584 28.4981 123.352 125 207 84
-10.5699 26.5932 123.62 149 234 147
-11.3498 26.6135 123.651 162 245 177
-12.2514 27.1074 123.665 174 255 219
29.5087 -16.3864 123.541 41 66 8
13.1485 26.7351 122.192 121 79 12
-5.53352 28.4022 122.865 123 204 70
31.1113 -7.68549 122.606 28 44 11
12.6653 28.0355 121.698 157 107 43
-6.623 28.2011 122.454 125 210 78
29.6544 -16.8833 122.614 42 63 15
21.7223 21.9777 121.165 84 99 32
13.0243 27.1937 121.268 125 78 19
-10.6733 26.5187 122.223 151 235 149
27.1481 16.0103 120.771 68 104 8
21.6261 21.9041 120.72 85 103 34
12.7974 27.5788 120.806 132 86 26
12.3399 28.3479 120.789 157 113 47
-10.6712 26.519 121.754 161 243 190
-11.4619 27.0878 121.759 173 254 212
13.129 27.2673 120.354 124 77 18
-7.80738 27.3803 121.14 147 228 122
26.1295 17.4799 119.841 77 111 15
21.5318 21.8308 119.823 82 99 35
12.0146 28.6602 119.881 158 112 48
27.1542 16.0112 119.414 71 103 5
20.5815 22.2312 119.389 81 66 12
13.2337 27.3408 119.439 127 76 24
2.07753 28.1877 119.811 76 129 25
-8.3465 27.006 120.243 131 218 93
-10.7747 26.4445 120.356 140 225 124
20.5835 22.2315 118.936 82 69 15
13.0069 27.7256 118.978 126 77 26
-9.66545 26.6508 119.838 130 212 90
-29.1572 17.8344 120.91 145 231 171
12.5788 27.965 118.529 133 86 34
11.9198 28.5886 118.527 155 105 49
-8.23354 27.0817 119.302 124 201 73
-10.4414 26.6714 119.397 141 221 111
-11.111 26.7673 119.417 152 233 139
2.39736 28.4094 118.412 80 129 24
-8.67935 27.3279 118.841 128 207 81
-10.999 26.843 118.941 144 223 120
-11.5698 27.5624 118.932 158 238 160
12.4084 27.2894 117.655 123 75 22
11.6475 27.8409 117.659 141 97 45
2.06566 28.7256 117.951 93 154 43
-29.0348 17.3408 119.47 131 220 140
-28.6756 18.7299 119.402 126 209 134
13.0702 26.6653 117.204 118 68 14
11.3196 28.1535 117.204 152 106 50
10.8884 28.3931 117.209 151 103 47
1.83862 29.1152 117.484 103 172 51
-5.29578 28.5543 117.745 125 200 71
-11.4557 27.6382 117.988 139 226 125
-29.0302 17.916 118.962 126 213 134
31.5305 8.01654 116.866 47 84 47
31.5047 9.72711 116.8 53 91 43
24.5016 19.0359 116.669 76 110 22
12.6414 26.9048 116.754 122 74 18
3.94678 27.2947 117.026 135 172 88
-8.56422 27.4038 117.434 128 206 63
-10.7732 26.9947 117.522 134 213 89
-12.0239 28.3574 117.511 139 225 143
11.3237 28.1541 116.295 155 108 53
10.9937 28.4664 116.294 153 106 46
3.82345 27.758 116.553 153 203 111
2.28088 28.8734 116.56 105 170 48
-3.88408 28.9774 116.755 115 171 63
31.783 8.79465 115.919 54 84 51
27.1704 16.0136 115.794 73 107 11
26.3789 17.0968 115.779 75 106 12
12.5446 26.8323 115.852 120 71 20
11.6556 27.8422 115.842 141 93 45
4.18048 26.9057 116.114 113 122 58
-10.8896 27.4677 116.572 140 220 106
-11.9097 28.433 116.568 131 214 147
-28.431 18.8911 117.451 116 196 133
10.9978 28.467 115.385 156 104 58
4.07844 26.8321 115.661 112 121 61
3.7235 27.685 115.641 154 205 116
2.28499 28.8741 115.641 114 175 53
-3.54369 28.6598 115.831 97 138 54
-11.1178 27.8648 116.096 133 213 120
31.9797 8.94991 114.999 50 84 52
31.0868 9.96329 114.99 62 97 45
26.2858 17.0223 114.88 75 106 15
25.8599 17.2582 114.884 74 106 17
12.3468 26.6867 114.954 119 71 20
11.6597 27.8428 114.933 134 89 38
11.101 28.54 114.925 156 105 55
32.1729 -3.21583 114.973 28 46 10
25.1685 18.4159 114.411 77 112 20
12.2007 25.4743 114.548 113 63 16
10.5705 28.7072 114.481 151 101 51
-3.43286 28.7345 114.899 122 167 89
-10.5545 27.6939 115.149 124 203 93
-11.0039 27.9405 115.154 122 205 113
25.499 18.1054 113.96 77 109 27
3.75086 27.1489 114.281 136 173 134
2.41586 28.4122 114.276 104 157 61
-11.7812 27.9624 114.708 113 193 120
31.0368 9.34349 113.651 61 94 49
12.3529 26.6876 113.591 116 65 14
11.6658 27.8437 113.571 134 86 35
10.3717 28.5624 113.583 152 101 49
9.30435 28.8968 113.602 149 96 50
3.75291 27.1492 113.822 138 168 141
-10.3314 27.8446 114.202 112 189 89
32.037 -11.1787 113.861 39 64 6
31.9417 -2.8161 113.581 42 62 24
11.439 28.229 113.11 148 100 44
4.08872 26.8337 113.364 110 100 109
12.6597 26.9075 112.666 118 66 16
12.1008 27.605 112.658 123 74 28
11.1112 28.5415 112.654 151 102 55
9.41025 28.9701 112.687 148 97 67
3.52752 27.5394 112.896 131 167 138
2.31752 28.3396 112.903 120 139 86
32.323 -3.69493 112.677 31 51 15
11.874 27.9903 112.198 131 85 41
10.7833 28.854 112.199 153 96 59
4.19692 26.9082 112.439 116 121 89
31.2379 9.49912 111.823 64 99 55
25.9954 18.4805 111.675 77 104 25
12.2059 27.6785 111.745 120 71 24
11.6473 28.3754 111.737 147 98 54
3.63579 27.6138 111.972 159 185 172
2.32163 28.3403 111.984 93 104 110
-7.90238 28.4007 112.251 132 170 118
32.0371 8.40805 111.382 52 84 59
12.895 26.5231 111.309 113 63 13
10.5848 28.7094 111.3 153 94 62
4.17948 27.4459 111.504 138 158 155
31.242 9.49973 110.915 61 95 58
23.5078 20.5057 110.772 79 108 46
12.109 27.6062 110.841 121 66 28
10.4854 28.637 110.851 154 95 60
25.4427 19.1768 110.313 78 107 31
12.8991 26.5237 110.4 113 59 14
11.68 27.8459 110.391 130 74 37
11.3501 28.1581 110.389 148 92 53
31.8389 -12.5807 110.639 60 86 45
32.0432 8.40897 110.019 55 85 66
12.113 27.6068 109.933 120 66 22
10.388 28.5649 109.946 154 98 63
5.14152 27.5734 110.101 87 61 88
31.4409 9.65495 109.543 61 96 58
21.9406 20.9939 109.44 77 107 55
12.9031 26.5243 109.492 114 57 16
11.583 27.7736 109.486 130 78 36
11.3541 28.1587 109.481 146 93 53
32.2397 8.56443 109.102 51 79 68
23.8165 19.0536 108.999 75 106 30
3.31453 27.9313 109.215 107 104 104
32.0082 8.95422 108.642 49 79 59
12.0181 27.5348 108.575 119 63 27
10.4955 28.6385 108.578 140 88 67
3.21235 27.858 108.76 107 92 90
12.9092 26.5252 108.128 110 56 11
13.2844 27.3484 108.098 114 59 15
11.2854 27.5557 108.136 127 76 38
11.2591 28.0869 108.122 144 89 56
24.0182 19.2037 107.633 77 104 45
12.9113 26.5256 107.674 111 57 14
11.9212 27.4625 107.67 117 65 26
10.8297 28.3268 107.67 148 94 65
4.42545 27.0591 107.837 142 147 142
3.65428 27.6166 107.839 138 138 153
32.0554 8.41082 107.293 46 78 69
23.461 19.9003 107.175 75 103 49
23.0346 20.1368 107.177 76 102 51
13.0872 27.2033 107.199 114 58 20
12.556 27.3694 107.205 113 59 23
11.1619 28.0147 107.217 144 87 56
4.32351 26.9855 107.382 130 123 129
23.3652 19.8262 106.726 76 104 52
22.61 20.3738 106.727 75 103 54
12.8145 26.453 106.769 109 58 18
10.9874 27.3375 106.783 129 72 40
3.34575 27.3959 106.932 147 179 191
2.57362 27.9541 106.933 120 163 138
1.04752 28.5343 106.949 119 187 146
-7.77112 28.4786 107.123 124 196 111
-8.882 28.8211 107.137 97 175 101
32.1006 7.86628 106.397 45 74 59
24.0243 19.2047 106.276 75 103 49
-12.8669 28.3117 106.759 120 201 147
22.3835 20.7596 105.818 69 98 54
13.0202 26.5999 105.853 105 57 20
11.727 27.3178 105.86 113 66 27
10.5335 28.1095 105.863 144 92 56
4.35135 26.4488 106.016 142 99 92
3.3708 26.8588 106.025 133 148 162
-7.55033 28.6283 106.185 114 192 108
32.2423 7.39885 105.495 52 80 74
32.3935 8.09973 105.477 53 82 75
23.8327 19.056 105.378 73 102 49
20.8743 21.8557 105.367 77 74 40
3.16407 26.711 105.572 133 149 159
2.16138 27.6599 105.568 122 168 142
1.0537 28.5352 105.568 124 196 162
-6.8859 28.5321 105.71 118 199 106
-12.6324 27.9149 105.826 116 201 148
25.9168 15.5774 104.967 75 105 32
16.145 26.6679 104.889 86 41 17
4.37713 25.9109 105.109 144 86 49
4.1473 26.3013 105.104 141 88 83
3.04084 27.1755 105.104 145 182 192
1.82921 27.9766 105.107 90 140 113
-7.54617 28.6289 105.254 113 194 108
-8.33066 29.1944 105.255 112 192 125
-13.1826 27.5388 105.375 120 202 152
32.4266 2.29375 104.693 40 61 54
23.0467 20.1387 104.463 71 102 55
11.7064 27.8499 104.485 74 43 40
9.80261 28.1316 104.511 103 88 61
4.02369 26.7656 104.636 121 95 103
2.27015 27.7344 104.644 126 176 144
28.0326 13.2435 104.076 73 104 39
18.4541 26.1542 103.958 67 24 12
3.17025 26.712 104.191 134 146 157
3.04496 27.1762 104.184 140 177 185
1.83333 27.9772 104.186 90 141 104
-3.59864 28.5936 104.261 101 178 98
-4.14873 28.7638 104.266 105 185 101
-6.00295 28.5853 104.299 111 193 111
-7.21746 28.8527 104.313 120 200 125
-12.9384 26.5916 104.452 123 206 149
-13.2798 26.9147 104.451 124 207 157
-14.2954 27.3342 104.459 137 208 187
32.1949 2.68865 103.772 39 62 63
28.1317 13.32 103.619 72 102 40
26.1655 18.0261 103.553 76 109 44
23.2814 19.7539 103.563 74 102 59
22.6241 20.3759 103.56 75 103 70
4.0278 26.7663 103.717 121 96 104
2.16962 27.6612 103.727 126 170 146
-4.80445 28.8604 103.811 112 195 106
-6.87758 28.5334 103.849 118 200 118
-7.9993 29.4181 103.849 123 207 140
-14.6349 27.6578 103.987 159 205 206
23.0528 20.1396 103.106 75 105 69
9.04548 28.6856 103.145 152 88 54
3.17437 26.7126 103.271 129 138 151
3.04907 27.1768 103.264 131 164 177
1.83744 27.9778 103.266 86 132 104
-3.48777 28.6683 103.331 108 183 105
-7.32146 28.7789 103.386 123 201 133
-12.6026 26.8191 103.503 130 213 158
-13.0542 27.0664 103.505 138 222 174
29.4538 12.0734 102.717 77 108 76
27.8863 15.4005 102.675 76 102 39
26.3638 18.1762 102.644 75 104 51
24.9902 18.8093 102.651 74 100 53
23.4812 19.9034 102.652 76 106 69
23.1528 20.2142 102.651 74 106 73
22.3977 20.7618 102.651 77 107 83
10.2174 28.4243 102.678 153 94 62
4.03191 26.7669 102.798 123 97 101
2.50796 27.3455 102.808 137 180 163
0.311061 28.5589 102.817 109 175 141
-12.7206 27.2931 103.026 141 224 188
28.2935 14.0128 102.243 70 102 45
8.97231 28.0813 102.247 150 87 54
3.38726 26.8613 102.345 128 135 147
1.73673 27.9046 102.348 77 127 97
-3.05729 28.9647 102.394 118 189 128
-6.11659 29.0543 102.434 130 205 146
-12.4977 27.4442 102.551 146 226 188
-14.2954 27.8851 102.567 157 235 228
32.2864 1.58209 101.959 41 63 69
29.6512 12.2269 101.804 81 105 86
28.2573 14.552 101.781 73 102 49
27.9872 15.4766 101.768 75 106 50
23.5832 19.9784 101.745 76 105 73
23.2548 20.2892 101.744 74 105 74
16.9157 26.1211 101.722 103 50 26
8.64329 28.3949 101.79 147 87 62
3.15972 27.2517 101.881 127 156 176
2.2825 27.7362 101.884 112 157 139
0.315183 28.5595 101.895 112 178 149
-4.9185 29.3283 101.95 129 207 140
-6.45174 29.3738 101.969 133 213 148
-13.7214 27.1637 102.103 152 232 202
1.74085 27.9052 101.428 79 123 99
1.40654 28.2216 101.427 89 144 121
-3.81574 28.9877 101.478 123 198 140
-14.2912 27.8857 101.627 168 237 238
26.2748 18.1027 100.84 76 105 64
22.5039 20.8372 100.839 77 106 81
20.533 22.7023 100.832 87 50 17
11.595 28.3101 100.845 132 74 43
10.5559 28.1129 100.86 143 84 57
3.37248 27.4 100.957 133 151 166
2.49586 27.8844 100.959 115 147 128
0.319305 28.5601 100.974 118 178 170
-7.00057 29.5454 101.044 146 221 179
-11.9404 27.8214 101.131 160 226 222
-13.8281 27.0888 101.165 165 222 241
5.28812 27.6535 100.472 119 95 100
1.74497 27.9059 100.507 80 121 102
1.41066 28.2222 100.506 93 138 120
-4.89712 28.7884 100.568 138 173 143
23.7868 20.1282 99.9321 80 107 86
22.7041 20.9861 99.9305 82 110 83
20.6356 22.7766 99.9251 86 49 18
-5.32432 28.4919 100.113 114 124 102
-6.64508 28.6846 100.124 115 159 134
30.1269 11.4519 99.5436 81 112 103
22.3778 21.2971 99.4772 78 109 83
8.6781 27.8639 99.5182 133 109 85
7.19485 27.9059 99.5324 91 56 66
3.25345 27.8642 99.5724 110 105 107
0.220215 28.4873 99.5936 98 89 102
-5.87451 28.6628 99.652 82 103 97
1.85597 27.9806 99.1245 102 113 80
1.41684 28.2232 99.1253 94 95 73
-3.36247 28.7451 99.1629 128 126 117
-4.44697 28.5448 99.1759 104 89 91
-6.53303 28.7596 99.1925 127 168 152
-8.41212 29.1241 99.205 134 171 161
-9.18509 29.1468 99.212 113 150 156
-13.0635 28.7139 99.2545 112 120 129
23.3668 20.3656 98.5769 83 112 92
22.0535 21.6084 98.5719 87 106 94
-5.97802 28.5891 98.7252 95 115 121
21.3005 22.1563 98.119 91 81 56
-4.76427 28.3228 98.2541 119 112 110
-6.08361 28.5151 98.2625 106 127 138
31.3262 7.79631 97.7641 74 101 97
26.4968 16.5726 97.6949 77 108 90
26.1313 17.4199 97.6874 77 108 92
24.551 19.5829 97.6733 84 111 100
23.3708 20.3662 97.6728 83 109 99
22.0576 21.609 97.6678 88 111 98
11.1033 27.9483 97.6744 130 109 89
24.6149 20.1908 97.2141 85 110 100
21.4029 22.2308 97.2132 94 84 58
-4.86738 28.2491 97.3278 120 121 134
-5.52682 28.3452 97.3313 89 93 107
-6.7405 28.6122 97.3367 168 187 201
25.0062 20.4876 96.757 85 111 97
23.4379 20.974 96.7618 83 112 100
22.2578 21.7575 96.7609 92 116 105
21.0766 22.5418 96.7599 83 55 29
26.9288 16.3378 96.3371 75 106 102
24.5834 20.724 96.3061 83 113 102
11.8441 27.9282 96.3065 118 96 98
-7.84465 28.9548 96.4097 101 125 140
-8.61671 28.9773 96.414 149 190 216
28.8833 13.3182 95.9033 76 101 104
25.1075 20.5623 95.8539 84 112 110
23.4072 21.5068 95.8537 88 118 109
9.20491 28.2316 95.8631 123 71 83
24.6847 20.7985 95.4029 85 115 111
11.7471 27.856 95.3993 118 90 84
25.6694 19.8689 94.9557 86 111 107
24.1643 20.9609 94.9526 89 120 112
23.6065 21.655 94.9491 90 119 107
20.2308 23.0171 94.9513 90 44 20
9.74362 28.0651 94.9512 129 81 80
22.8555 22.2017 94.4964 98 125 111
11.7512 27.8566 94.4907 105 76 76
8.98217 28.6186 94.4942 139 119 95
-5.74198 28.7409 94.0784 151 142 177
24.1351 21.4935 93.5958 98 125 115
22.9573 22.276 93.5934 103 126 110
11.7552 27.8572 93.5822 74 40 47
8.55534 28.8597 93.1271 139 82 59
-5.63032 28.8157 93.1493 162 167 182
-12.5952 29.0176 93.1588 117 151 149
24.1392 21.4942 92.6941 94 127 110
11.4293 28.1701 92.6723 89 82 95
3.17996 27.7952 92.682 170 215 195
-5.62824 28.816 92.6851 177 200 191
-12.4732 28.5462 92.6929 106 147 133
32.2482 6.78359 91.8499 59 84 78
31.7389 8.11109 91.8448 69 96 93
11.7633 27.8585 91.765 122 99 67
3.4136 27.4062 91.7645 133 157 156
-5.8392 28.6681 91.7572 172 232 242
-12.469 28.5469 91.7559 177 249 246
-12.929 29.3404 91.7528 188 255 251
32.209 7.33057 91.3928 66 93 88
23.7902 20.6672 91.3438 94 125 114
23.7552 21.1996 91.3421 96 125 114
9.93796 28.7446 91.3064 136 66 48
2.64354 27.9647 91.3025 159 208 188
-6.17442 28.9877 91.2915 169 239 238
-8.70246 28.9062 91.2896 170 243 235
-11.4566 28.1283 91.2896 180 253 250
23.4642 20.9779 90.8909 98 129 119
11.7674 27.8591 90.8565 107 46 35
3.20909 27.2592 90.8453 129 146 160
2.54111 27.8913 90.8428 159 208 187
-5.94269 28.5945 90.8285 168 240 244
-12.575 28.4725 90.819 190 255 253
32.3508 6.86249 90.4839 69 98 86
32.1166 7.25332 90.4827 68 97 88
15.2531 27.0813 90.4109 100 39 17
10.0436 28.8179 90.3968 135 63 45
4.19149 26.8492 90.3883 130 80 83
2.20918 28.2077 90.3816 119 165 145
-6.04827 28.5205 90.3639 169 244 243
-7.04702 28.9365 90.361 170 242 238
-8.91572 28.7579 90.3575 177 247 245
-11.7822 27.9038 90.3531 187 254 252
23.1748 20.7563 89.9872 101 129 122
2.67016 27.4281 89.924 164 207 183
-6.04619 28.5208 89.8992 169 244 240
-12.5611 27.9257 89.8824 185 253 249
32.3135 7.40963 89.5729 69 95 87
3.88324 26.628 89.4684 133 82 75
2.10859 28.1346 89.4617 125 172 146
-7.25903 28.7884 89.4305 173 244 232
-7.93271 29.4282 88.9627 180 250 236
23.083 20.683 88.6309 96 126 118
3.13575 26.6485 88.5453 122 105 106
2.34218 27.7453 88.5425 170 221 195
-6.78126 27.4563 88.5013 172 238 234
-7.0387 28.9377 88.5012 177 243 244
-8.26851 29.7483 88.4962 187 253 249
-12.104 27.6796 88.4775 187 255 248
-12.4445 28.0018 88.4762 187 255 249
2.21947 28.2092 88.0825 129 180 155
23.1849 20.7578 87.7275 99 131 117
3.24435 26.7232 87.6255 123 102 109
2.68045 27.4297 87.6237 161 204 180
-6.45084 27.6815 87.1067 169 237 234
-7.03246 28.9387 87.1063 179 249 238
-8.0456 29.8975 87.1024 184 249 238
32.505 6.39585 86.8413 73 96 87
23.0911 20.6843 86.8227 97 131 116
22.9951 20.6104 86.3697 97 130 113
10.1131 27.758 86.3007 132 59 47
4.10593 26.7781 86.2517 132 77 67
3.35493 26.7982 86.2461 122 100 82
3.1252 27.1883 86.2459 123 138 105
-8.14971 29.824 86.1714 198 232 223
-8.8253 30.4634 86.1688 172 180 199
32.2747 6.7876 85.9302 74 98 89
22.8991 20.5364 85.9164 100 131 114
22.2422 21.1581 85.9139 100 127 106
10.4458 27.4453 85.8466 118 45 39
3.46133 26.8725 85.7872 123 101 73
2.43883 28.358 85.7857 117 170 138
-8.81089 29.9217 85.7013 166 158 174
23.1663 19.6171 85.4617 97 132 118
16.9799 24.4664 85.4328 99 41 27
4.21411 26.8526 85.3337 133 77 61
3.23377 27.2629 85.3273 114 133 76
-5.56565 27.7361 85.2529 178 241 229
15.7354 26.3169 84.9786 95 45 22
10.3482 27.3728 84.9345 108 48 31
8.84556 27.9469 84.9238 134 66 49
-7.02206 28.9403 84.7815 196 235 217
32.5152 6.3974 84.5639 75 98 93
-5.23883 27.9603 84.3279 174 239 219
-9.13053 29.7002 84.3004 156 97 103
6.16554 28.7857 83.9894 91 126 50
-9.12844 29.7005 83.8347 132 77 84
16.3594 24.5587 83.6132 117 141 118
11.9546 26.8741 83.582 70 104 13
5.83559 29.1001 83.5311 83 143 58
-5.11215 27.4925 83.3966 176 242 221
-10.6756 29.7472 83.352 170 136 134
23.1765 19.6187 83.1983 96 126 116
-6.46027 28.7706 82.9267 197 209 189
-9.0034 29.2322 82.9007 144 87 99
16.1339 24.9446 82.7066 132 137 130
12.4911 26.7085 82.6775 67 94 15
9.49297 27.8543 82.6508 90 138 53
7.55473 28.67 82.6342 80 145 37
23.1805 19.6193 82.293 97 126 113
-9.56722 29.9477 81.9683 162 116 108
12.6971 26.8554 81.7725 67 81 20
11.9359 27.4071 81.7679 49 67 19
10.8703 27.7403 81.7568 45 69 25
7.55881 28.6706 81.7215 87 122 53
23.1846 19.6199 81.3877 99 128 116
-5.46884 28.8981 81.0831 177 170 157
23.3826 19.7693 80.9396 100 130 115
23.1519 20.1546 80.9406 98 128 113
10.0102 28.2205 80.8398 97 52 41
7.35767 28.5251 80.8041 112 60 50
-4.59364 28.9501 80.6325 185 205 198
-6.23437 28.9207 80.6079 156 116 110
-9.11386 29.7027 80.5744 152 100 69
11.7131 27.7933 80.4056 65 32 18
-5.57218 28.8245 80.1524 171 149 139
22.2685 21.1621 80.0347 102 131 116
21.283 22.0947 80.0309 95 116 93
12.9069 27.0028 79.9601 73 30 17
11.1826 27.9603 79.9448 103 37 30
-1.66464 29.3265 79.757 172 229 209
-4.69661 28.8767 79.7028 178 182 151
24.8883 20.3511 79.6149 97 129 115
23.4517 20.3785 79.5915 99 128 116
22.0403 21.5473 79.5838 104 128 117
10.6515 28.1274 79.4836 120 44 39
-5.46054 28.8993 79.2268 153 123 94
21.2871 22.0953 79.1264 104 106 81
-4.79962 28.8032 78.7727 163 154 111
23.4558 20.3791 78.6874 97 127 113
22.0443 21.5479 78.6795 102 128 107
21.7159 21.8587 78.6783 105 119 96
15.4763 27.7636 78.6544 92 32 24
3.55637 28.0258 78.4461 91 133 52
-5.45638 28.9 78.2987 142 105 75
21.2911 22.0959 78.2219 104 96 70
3.32909 28.4152 77.9887 95 149 70
-4.79547 28.8038 77.8453 164 142 110
24.8706 19.2113 77.7914 94 127 111
24.7991 20.2782 77.8071 99 127 116
23.8859 20.1432 77.7876 101 127 120
22.4748 21.3118 77.7795 100 129 111
21.0631 22.4809 77.7715 90 62 33
17.3209 26.356 77.7625 98 46 25
15.58 27.8367 77.7531 94 30 19
3.16453 29.9471 77.551 124 181 182
18.1465 26.4097 77.3276 93 43 24
25.3003 18.9759 76.8921 96 130 110
24.4488 19.4482 76.883 95 129 117
23.366 20.306 76.876 96 126 111
22.5769 21.3864 76.8787 102 132 109
21.0672 22.4815 76.8672 86 60 29
3.64757 28.6365 76.6217 91 144 68
2.3148 29.8978 76.6166 151 212 202
-4.66673 28.3376 76.4485 173 168 160
-10.3167 29.9749 76.3626 113 56 82
24.7077 20.2049 76.4499 96 128 120
17.0205 24.4725 76.3665 91 38 23
4.08671 28.3949 76.1677 88 125 50
-0.573304 29.527 76.091 172 228 215
-9.86692 29.729 75.9012 115 66 72
24.3552 19.3743 75.9755 99 130 123
23.0416 20.6174 75.9705 99 132 119
22.7132 20.9282 75.9692 96 130 116
3.54756 28.5637 75.7006 88 139 60
2.86048 29.7293 75.7076 121 178 176
-10.4217 29.9013 75.4263 111 52 67
22.2887 21.1652 75.5122 100 131 116
17.8819 23.9971 75.4696 92 32 24
5.17154 28.059 75.2678 114 73 49
4.63145 28.2272 75.2591 83 82 30
-0.885826 29.3071 75.1584 165 225 198
-9.86275 29.7296 74.9688 121 68 71
32.1715 1.99538 74.9028 41 64 58
3.44759 28.4909 74.7791 88 139 52
2.55185 29.5104 74.7791 118 176 167
-10.0787 29.5813 74.4947 130 77 77
25.4439 18.5176 74.6266 96 126 108
4.42804 28.0809 74.3345 83 81 36
-7.19036 28.7988 74.0793 148 93 91
-11.0823 30 74.0135 115 54 80
32.0784 1.91629 73.9818 57 79 71
23.1823 20.1592 74.1553 99 128 116
22.1966 21.092 74.1516 104 134 119
5.92387 28.0387 73.9105 115 48 40
3.55577 28.5649 73.8652 87 137 50
2.45164 29.4379 73.8574 111 169 158
-6.74235 28.5539 73.6195 133 85 70
22.4291 20.7072 73.6964 98 133 119
13.7238 25.924 73.5973 95 28 17
5.0762 27.9868 73.4309 105 70 43
4.43214 28.0815 73.4172 80 82 27
-0.41887 28.527 73.3084 158 223 206
-7.40251 28.6506 73.1404 169 119 100
-11.5162 29.703 73.0628 125 57 81
25.62 17.5224 73.2525 97 130 113
23.8786 19.0031 73.242 98 131 114
22.1025 21.0185 73.2427 101 135 114
12.5884 25.6495 73.1083 95 31 21
9.53578 27.8608 73.0814 129 51 45
5.18179 28.0606 72.9768 99 67 39
3.55988 28.5655 72.9475 89 137 46
-7.61698 28.502 72.6662 155 89 78
-8.06357 28.7476 72.6605 151 84 72
25.4271 17.3727 72.7914 98 132 114
23.9785 19.0781 72.7936 100 131 115
22.4331 20.7078 72.7915 100 131 115
4.33243 28.0087 72.4956 78 80 30
2.14452 29.219 72.4674 92 153 128
1.81093 29.5347 72.4661 136 200 180
0.00712727 28.8225 72.4034 158 224 206
-11.0631 29.457 72.1341 118 62 74
-12.2808 29.1814 72.0966 116 71 66
22.2047 21.0932 72.3421 104 134 111
9.64178 27.9345 72.1744 130 52 46
8.90268 27.9555 72.1555 126 47 41
-7.72112 28.4281 71.7303 137 63 61
-8.50626 28.994 71.7231 135 63 67
24.3467 18.2321 71.8776 100 132 111
23.8847 19.004 71.884 98 131 109
22.339 20.6341 71.8822 99 133 113
4.00333 28.3246 71.5769 84 122 36
1.60576 29.3887 71.5384 124 191 154
0.0112502 28.8231 71.4818 148 216 191
-12.0466 28.7855 71.157 132 99 68
22.1106 21.0197 71.4329 103 135 111
8.8046 27.8831 71.2389 126 45 40
5.39692 28.2086 71.1534 83 58 34
3.67219 28.6402 71.1168 85 136 39
-2.50804 29.8198 70.9766 162 191 146
-7.93384 28.2795 70.7891 128 71 63
-8.93689 28.6966 70.772 131 82 72
-9.27559 29.0171 70.7707 121 77 61
-11.9346 28.8607 70.6938 151 117 75
22.4412 20.709 70.9817 100 133 117
4.21517 28.472 70.669 86 121 38
1.60987 29.3894 70.6193 116 181 139
23.0025 20.0129 70.527 99 133 115
22.2128 21.0944 70.5327 100 133 113
8.70644 27.8105 70.3218 123 43 33
3.88419 28.7875 70.2092 87 131 39
-1.49784 28.8683 70.057 159 214 199
-7.92967 28.2802 69.8572 128 71 56
-8.93272 28.6972 69.8394 157 97 73
-9.71906 29.2639 69.8317 146 87 65
31.6698 6.25136 69.9581 73 93 87
8.17236 27.9781 69.8544 129 45 40
6.25186 28.2615 69.8058 77 34 24
4.11544 28.3993 69.7469 82 116 39
-6.38583 28.237 69.4352 127 125 110
22.3491 20.6356 69.6193 101 132 115
11.1807 26.8304 69.4561 99 37 25
3.80558 28.1791 69.2729 80 116 36
1.63581 28.8542 69.2267 71 135 81
-8.58985 28.3773 68.908 126 69 47
-9.82396 29.19 68.8935 160 110 101
22.2189 21.0954 69.1757 104 132 112
9.35023 27.7174 68.9699 121 45 42
8.17645 27.9788 68.9415 119 43 42
6.1528 28.1888 68.8857 75 36 30
3.37016 28.4215 68.8074 79 125 38
2.2856 28.7589 68.7839 55 109 31
-0.0817891 28.7513 68.7115 136 201 183
-6.27384 28.3121 68.5104 97 126 95
-7.81493 28.3558 68.4647 134 109 86
22.6819 20.3252 68.7155 97 131 111
22.2209 21.0957 68.7233 103 134 112
8.38324 28.1253 68.4956 121 43 50
4.03907 27.7907 68.3509 66 86 33
-3.01068 28.914 68.1641 78 114 48
-10.2678 29.4369 67.9536 162 122 109
17.8149 23.9285 68.2146 45 59 18
4.04113 27.791 67.8919 69 84 33
3.37427 28.4221 67.8893 91 141 50
2.49866 28.9064 67.8758 54 107 36
0.783184 28.8036 67.8184 102 164 130
-6.71531 28.5579 67.5736 96 128 99
-8.36624 28.5275 67.5204 135 114 86
-9.8177 29.191 67.4939 147 85 85
14.5824 25.9822 67.7187 96 33 27
13.5208 26.3135 67.6944 104 49 43
-1.04425 28.6267 67.2936 152 203 178
-3.11307 28.8407 67.2333 82 113 46
31.0053 -1.35325 66.9655 76 100 79
17.62 23.7818 67.2972 48 64 25
9.79142 27.4785 67.1532 111 39 33
8.61848 27.7395 67.1226 115 33 31
6.49331 27.8755 67.0568 114 35 37
5.74799 27.8966 67.033 106 44 37
4.04523 27.7916 66.9737 74 77 26
3.37837 28.4227 66.9712 99 149 52
2.50277 28.907 66.9573 50 104 25
20.2241 21.8229 66.8695 67 56 37
19.3359 22.8311 66.8713 61 49 32
9.25837 27.6458 66.6847 118 40 31
7.13641 27.7815 66.6178 119 35 34
-3.10893 28.8413 66.3078 88 125 64
-5.72494 28.6854 66.2153 52 100 71
-6.27766 28.8562 66.2021 65 109 85
32.4487 -6.73415 65.9197 76 98 78
23.0207 20.0156 66.4539 98 131 114
17.5246 23.7087 66.3846 79 39 25
13.5549 25.7822 66.3155 95 24 19
12.619 25.6541 66.2795 95 23 19
10.661 26.9991 66.2557 107 35 28
8.41783 27.5936 66.1982 120 35 30
6.82972 27.5617 66.1431 122 38 33
5.44188 27.6768 66.0994 113 48 36
-9.47048 28.8715 65.629 125 129 131
31.1631 6.41117 65.8399 52 75 67
19.998 22.209 65.9679 77 31 14
10.3321 27.3125 65.7989 112 34 27
6.08677 27.5827 65.6603 121 42 34
3.38453 28.4236 65.594 99 148 48
-6.1658 28.9311 65.279 57 109 58
-9.91633 29.118 65.155 128 143 121
32.3968 -7.38415 64.9682 79 98 79
26.3587 19.1945 65.6391 96 121 119
17.4291 23.6356 65.4715 84 37 15
9.46851 27.793 65.3287 111 53 22
8.31953 27.5209 65.2791 110 53 21
-2.66018 28.5982 64.9272 81 119 62
31.2116 -1.18975 64.6711 63 81 75
31.2641 6.49003 64.9334 54 74 71
27.6335 18.4882 65.2098 92 121 107
10.2088 27.7725 64.8987 95 76 34
5.24094 27.5306 64.7121 100 95 46
4.90791 27.8457 64.7108 87 92 34
3.82611 28.1822 64.6834 82 122 27
-4.20005 29.1832 64.429 39 88 46
-5.50158 28.8352 64.3705 43 97 46
-6.16164 28.9317 64.35 64 122 55
-8.58156 28.9245 64.2629 93 152 80
-9.46422 28.8725 64.2294 112 160 98
-9.58509 29.3421 64.241 128 159 110
27.3082 18.7984 64.7578 93 121 99
20.4318 21.9725 64.6163 77 82 55
17.5327 23.7099 64.5704 74 81 51
15.5269 26.1115 64.5801 68 75 46
6.01249 26.9743 64.2624 114 110 77
4.03617 28.3296 64.2371 85 120 25
-1.36508 28.9462 64.0611 95 138 59
31.0767 -0.710514 63.7605 52 74 70
26.6924 18.8853 64.2872 93 120 105
26.1708 19.0466 64.2735 92 121 105
10.3145 27.8461 63.9944 132 100 69
5.45213 27.6783 63.8079 144 141 92
4.14211 28.4033 63.7848 85 112 26
3.80899 28.7185 63.7835 98 134 39
0.553447 29.7328 63.6983 93 145 62
-5.49743 28.8358 63.4421 39 86 45
-6.15749 28.9323 63.421 55 105 47
-8.46875 28.9997 63.3376 103 153 66
-9.35107 28.9477 63.303 116 144 78
-11.9011 28.8658 63.2054 142 101 108
31.2702 6.49096 63.5647 53 73 71
27.3872 17.7313 63.8209 88 117 102
26.5006 18.7367 63.8234 93 121 108
20.4359 21.9731 63.7105 80 97 74
18.8903 23.6033 63.7106 69 95 57
16.8477 24.8661 63.6788 66 88 49
9.3747 27.7211 63.4991 123 83 64
7.60946 27.0082 63.4069 124 87 70
6.11992 27.0486 63.3522 128 109 90
-2.54551 28.6735 63.0834 64 97 48
-3.96428 28.7917 63.0341 43 78 44
31.1787 -0.629107 62.8453 40 56 48
27.0613 18.0419 63.3682 87 119 103
25.0327 19.2956 63.3362 98 120 103
11.588 27.6592 63.1257 97 57 40
5.45623 27.679 62.8913 151 132 95
4.14621 28.4039 62.8675 92 110 31
3.27176 28.8877 62.8517 82 120 29
-2.87936 28.9917 62.6196 48 72 32
-4.17613 28.6438 62.5572 41 71 41
-5.15613 28.5174 62.515 41 69 47
-6.26104 28.8587 62.4851 39 73 44
26.3106 18.5882 62.9078 94 123 107
7.40789 26.8616 62.4786 111 54 44
7.0755 27.1761 62.4773 114 59 51
6.22732 27.1229 62.4423 117 68 62
2.62772 28.9836 62.3712 54 96 4
0.454582 29.6604 62.3117 96 145 53
31.3785 -0.467082 61.9375 36 53 41
25.0368 19.2963 62.4325 72 85 72
17.7419 23.8589 62.3162 71 95 55
11.5921 27.6598 62.2165 95 39 27
10.1193 27.7013 62.1598 110 48 39
9.5847 27.8682 62.145 111 46 40
5.35683 27.606 61.9679 129 93 75
4.04643 28.3311 61.9434 99 115 34
3.17172 28.815 61.9271 79 108 27
1.00074 29.4913 61.8667 97 152 68
-6.36464 28.7851 61.5488 39 65 53
28.1448 14.3516 61.9156 86 114 99
26.1205 18.4396 61.9912 96 113 100
10.1213 27.7016 61.7043 104 35 35
6.23142 27.1235 61.526 104 39 48
2.52742 28.9108 61.4458 51 83 4
0.563735 29.7343 61.3986 107 149 76
-5.57986 28.2209 61.0939 37 61 47
25.4663 19.0608 61.537 45 54 30
11.5961 27.6604 61.3073 87 20 22
9.48686 27.7958 61.2266 102 29 32
7.28745 27.3241 61.1185 103 32 40
1.00486 29.4919 60.9471 94 141 45
-2.97757 28.919 60.7624 46 54 24
-6.57619 28.637 60.6048 45 66 52
31.2869 -0.546846 60.5484 43 59 40
28.0871 10.8735 60.8689 85 109 98
10.2528 27.2427 60.7804 93 25 28
9.38694 27.723 60.7637 100 28 35
6.00608 27.5127 60.6155 104 56 54
5.13361 27.9955 60.5986 136 124 74
3.51123 28.5005 60.5515 99 119 38
2.53153 28.9114 60.5273 58 80 5
0.796963 29.3454 60.4727 97 126 42
-5.34575 27.8277 60.1585 43 61 39
-5.79099 28.0726 60.1498 39 60 43
-7.12794 28.8083 60.1237 46 58 48
-8.78016 28.7784 60.0542 55 67 64
25.0449 19.2975 60.6252 34 58 54
8.54677 27.6709 60.2703 92 30 40
7.3944 27.3982 60.211 90 30 44
4.2839 27.9434 60.1024 94 96 33
-6.67994 28.5633 59.6673 54 55 49
-8.88683 28.7042 59.5804 71 46 45
28.7139 10.7923 59.9814 95 97 74
28.2475 11.5715 59.9934 91 98 77
9.39102 27.7236 59.8519 84 31 37
6.21666 27.6603 59.7141 90 55 40
3.41123 28.4277 59.6261 108 104 48
1.55453 29.3235 59.5838 118 75 42
0.361838 29.5889 59.5439 134 76 44
-2.63535 28.602 59.3759 137 78 50
-5.4492 27.7538 59.2214 118 87 64
-7.23187 28.7345 59.1856 67 46 44
-9.11461 29.0995 59.1204 109 47 59
31.3133 -6.50524 58.9194 53 61 41
11.2255 26.8372 59.4382 79 22 19
8.75542 27.8179 59.3723 78 39 36
7.91184 27.7656 59.3338 74 34 29
5.78281 27.9018 59.2475 116 92 51
5.45018 28.2166 59.2462 126 110 59
2.43327 28.8389 59.1419 85 47 6
-6.78382 28.4895 58.7294 72 48 27
-9.45114 29.4202 58.6529 106 48 65
9.39509 27.7242 58.9401 72 45 34
8.22137 27.9856 58.8997 72 36 33
3.41534 28.4283 58.708 119 79 38
1.55864 29.3241 58.6645 130 70 41
-1.12867 29.0974 58.5373 134 66 38
-2.52482 28.6766 58.4585 136 69 42
-5.66031 27.6052 58.276 135 78 50
-6.21383 27.7757 58.2589 133 89 61
-7.6607 28.4373 58.2235 101 54 46
17.1687 25.0895 58.7162 88 110 74
11.128 26.7645 58.5198 73 20 18
5.66102 28.3639 58.3457 103 86 58
4.49984 28.0918 58.2826 112 88 59
2.97972 28.6707 58.2399 113 64 29
-6.98204 27.7973 57.7604 140 90 67
-7.767 28.363 57.7498 123 68 57
-8.43112 28.4595 57.7244 110 50 47
-9.55588 29.3465 57.7125 98 45 58
7.45978 28.5406 57.9765 70 46 28
3.52355 28.5024 57.7978 129 77 40
1.22892 29.6407 57.744 136 59 36
-5.8717 27.4565 57.3296 134 65 43
32.1942 5.47574 57.6297 81 103 82
4.91869 28.3861 57.3972 96 66 35
2.54591 28.9136 57.3123 100 41 11
2.21232 29.2293 57.311 111 50 23
-1.77537 29.1945 57.1277 137 62 39
-6.85595 27.3281 56.8137 135 62 42
-7.53285 27.9687 56.8111 145 83 72
-8.87431 28.706 56.7825 118 51 57
-9.66063 29.2727 56.7716 99 43 61
22.9631 19.9473 57.3947 100 125 108
10.931 26.6188 57.1375 69 26 17
8.96999 27.9657 57.1072 91 73 54
3.09012 28.7451 56.8705 120 60 38
1.54719 29.861 56.8492 139 61 38
32.0603 5.9468 56.732 83 102 82
9.50725 27.7989 56.6687 103 95 85
6.3112 28.2705 56.5405 78 68 38
4.92279 28.3867 56.4808 96 61 37
2.65443 28.9876 56.4019 99 38 13
2.32092 29.3032 56.4006 111 48 25
-1.45346 29.4161 56.2291 135 54 37
-5.97331 27.3827 55.9253 136 57 40
-7.74554 27.8199 55.8622 138 69 49
-8.53144 28.3862 55.8511 150 90 69
11.2397 26.8394 56.2507 68 22 17
3.19841 28.8191 55.9607 117 60 31
1.5513 29.8616 55.9306 135 56 34
-6.8497 27.3291 55.4158 136 59 40
-11.9754 28.7963 55.2403 108 46 72
28.2501 16.1197 56.1115 22 26 15
12.9138 26.946 55.8806 87 41 23
4.71963 28.2406 55.5476 91 56 30
2.65853 28.9882 55.4836 98 38 10
2.32503 29.3038 55.4823 108 46 21
-1.02637 29.7109 55.3404 130 53 31
-7.95838 27.671 54.9124 131 65 41
-11.9733 28.7966 54.7722 109 47 75
-1.46483 29.9546 54.8696 132 54 30
-6.52112 27.5541 54.5102 133 60 37
-8.17359 27.5215 54.4283 133 65 39
4.18314 28.4095 54.6123 113 55 29
3.20457 28.82 54.5838 124 62 33
-8.94598 27.5429 53.9245 131 65 43
-12.8696 29.2914 53.8153 102 56 71
12.8191 26.8739 54.5091 94 71 41
5.90868 27.9787 54.2186 67 78 32
1.99767 29.6204 54.1035 129 62 36
-7.39649 27.501 53.5325 138 61 40
-9.05292 27.4682 53.4484 134 64 44
4.29107 28.4835 53.7039 116 60 33
3.20868 28.8206 53.6659 119 64 35
2.33324 29.3051 53.6456 109 52 26
-1.14158 30.1757 53.5132 135 53 32
-9.39019 27.7897 52.9798 133 68 42
-12.7551 29.3668 52.8878 93 55 67
12.8252 26.8748 53.146 69 51 23
4.29517 28.4841 52.7868 115 56 31
3.21278 28.8213 52.748 119 59 32
2.33735 29.3057 52.7272 111 49 26
-2.31928 29.9059 52.5171 132 53 32
-8.2719 27.4481 52.0856 138 62 41
-10.9407 27.8332 51.9673 143 86 74
-11.1709 28.23 51.9754 147 89 83
25.9059 17.6862 52.9048 73 14 11
8.96556 28.5011 52.573 44 73 23
7.17621 28.325 52.4706 49 78 27
6.12334 28.1267 52.4054 58 70 28
5.58432 28.2946 52.3858 69 58 24
-1.02978 30.2499 52.1404 132 51 30
-12.7393 28.8213 51.4556 99 49 64
17.687 23.7919 52.3342 78 33 28
13.7187 25.8651 52.2319 84 47 31
12.8292 26.8754 52.2372 69 30 24
4.50681 28.6315 51.8884 110 55 30
3.21689 28.8219 51.8301 119 62 32
2.44585 29.3796 51.8182 111 53 24
-4.5701 28.8959 51.4224 137 58 38
-5.55091 28.7698 51.3641 139 61 43
-8.93344 27.5448 51.1219 137 60 45
31.2573 8.76346 51.818 14 19 11
25.1914 17.698 51.9623 75 15 11
12.6294 26.7295 51.7644 66 22 21
7.28305 28.3988 51.5661 49 69 38
6.33371 28.2739 51.5088 55 63 36
5.69173 28.3685 51.4795 60 47 24
1.67649 29.9379 51.3472 135 57 33
-3.27011 29.2436 51.0464 134 54 35
-10.9344 27.8342 50.5629 139 69 58
-11.5046 28.5526 50.57 147 87 85
-13.2871 28.4469 50.4692 100 50 67
-14.8559 28.4912 50.3877 83 62 67
22.1996 21.0332 51.5246 98 60 53
17.492 23.6451 51.4088 74 23 20
14.3544 25.7734 51.3521 65 19 22
13.5213 25.7189 51.3042 64 21 25
4.71825 28.7786 50.9908 113 54 35
3.32513 28.8958 50.9217 118 59 35
2.5543 29.4534 50.9096 115 55 29
-4.78026 28.7482 50.4757 136 54 39
-5.43929 28.8446 50.4452 138 58 43
-5.88398 29.0896 50.4342 136 56 42
-9.81455 27.4915 50.1369 138 58 42
-13.9578 28.5445 49.9689 96 54 75
32.0313 5.32326 50.7657 80 100 81
17.494 23.6454 50.9551 72 22 24
13.0922 25.9584 50.8388 51 20 19
7.59506 28.6186 50.6812 37 49 29
5.05302 28.4641 50.5339 85 49 30
-10.7109 27.9849 49.6466 135 61 42
15.9782 24.746 50.4774 63 20 24
11.3676 26.9166 50.3406 44 23 20
6.44293 28.3481 50.1462 42 43 21
-4.22506 28.5784 49.5693 135 53 36
-5.09799 28.5262 49.5182 135 56 37
-9.59179 27.6423 49.2218 136 60 39
-10.7199 28.5314 49.2078 139 68 52
-11.1691 28.778 49.1964 140 72 65
27.4102 18.2747 50.3063 60 28 15
23.0936 20.0267 50.1615 64 41 25
12.4084 27.1163 49.9543 39 21 16
5.05711 28.4647 49.6178 84 48 27
4.08038 28.8748 49.5858 126 60 39
2.99801 29.2122 49.5439 104 43 18
-5.98538 29.0163 49.0312 137 61 40
-6.43046 29.2614 49.0199 136 59 39
-10.7067 27.9855 48.7108 142 66 46
31.2604 -6.58113 48.69 75 93 80
16.1821 24.8936 49.5892 54 20 13
11.4731 26.9904 49.4399 38 24 14
11.041 27.2301 49.4288 36 31 17
6.24081 28.2021 49.2118 45 52 23
3.4375 28.9705 49.0963 118 53 33
3.00007 29.2125 49.085 104 40 18
-4.54221 28.3564 48.6115 131 51 31
-5.53845 28.7717 48.5783 138 60 40
-9.69687 27.5679 48.2766 136 55 39
-10.6062 28.6068 48.283 138 62 49
-11.1649 28.7787 48.261 140 67 60
31.4839 3.11747 48.7836 81 99 86
27.2208 18.1261 49.3847 29 33 14
26.7961 18.3616 49.3737 29 31 12
23.1956 20.1017 49.2661 38 42 14
12.2645 25.9053 48.9687 38 21 15
4.52116 28.6336 48.6803 115 53 35
3.43955 28.9708 48.6375 117 53 32
2.56456 29.455 48.6148 111 52 26
-5.98122 29.0169 48.1024 138 58 39
-6.31853 29.3361 48.1012 134 54 35
-10.8122 27.9111 47.7645 137 57 43
-16.6351 27.8362 47.428 74 48 36
26.0819 18.3737 48.8817 28 24 12
25.3644 18.3855 48.8409 31 26 13
20.8972 22.279 48.8048 65 87 65
11.3757 26.9178 48.5196 36 24 17
6.03854 28.0561 48.2765 53 68 23
5.60275 28.2974 48.2651 60 49 15
-4.64526 28.2828 47.6732 132 52 33
-5.42683 28.8465 47.6602 139 57 40
-9.92295 27.9649 47.3507 136 56 41
-10.4925 28.6822 47.3587 136 60 47
4.31773 28.4876 47.7432 111 49 33
3.44366 28.9714 47.72 115 53 38
2.33968 29.8442 47.7059 130 67 42
-5.86944 29.0918 47.1842 137 53 33
-6.20666 29.4109 47.1829 138 55 34
26.1831 18.449 47.9881 43 11 10
21.8872 21.3467 47.9037 61 39 20
5.62936 27.763 47.3196 65 85 29
5.40008 28.1514 47.3287 72 63 21
3.00828 29.2137 47.2496 104 44 26
-5.31522 28.9213 46.7425 137 53 34
-9.80949 28.0404 46.4266 135 58 43
-10.8059 27.9121 46.3604 130 55 41
-10.5978 28.6081 46.4132 134 64 47
-11.4857 28.5555 46.3578 141 70 54
20.5418 23.123 47.4755 92 113 86
3.8849 28.73 46.8144 119 51 35
2.34379 29.8448 46.7882 134 68 41
-4.74631 28.2093 46.2702 130 48 27
-5.86528 29.0924 46.2556 139 57 40
-6.20251 29.4115 46.2543 137 55 39
-10.9135 27.8373 45.8815 131 54 41
32.0497 5.32604 46.6567 80 101 76
13.1105 25.9612 46.7454 42 19 14
5.53003 27.6901 46.3926 73 89 39
-4.85154 28.1353 45.7952 134 51 29
-5.31107 28.922 45.8144 136 55 32
-9.13859 27.9446 45.5262 140 58 40
-10.8127 28.4591 45.4562 134 53 40
-11.9213 28.2563 45.3775 140 59 47
-12.3717 28.5033 45.3652 137 52 42
31.0272 -3.18627 45.6264 76 97 77
26.3833 18.5992 46.6537 38 11 13
21.9577 21.9544 46.5867 61 37 23
-5.09433 29.0705 45.3722 138 55 30
-6.19835 29.4121 45.3257 141 53 31
-12.4798 28.4286 44.8854 133 45 34
-16.8529 28.2378 44.6084 81 45 29
25.8631 18.7608 46.18 40 12 12
23.6363 19.8673 46.1107 45 13 13
14.0489 26.0893 45.9008 43 19 15
11.7932 27.2123 45.8307 39 31 16
10.7266 27.5455 45.7855 72 80 49
9.02099 27.9735 45.707 86 111 58
6.17691 27.5964 45.5097 85 110 57
5.63756 27.7643 45.4868 100 104 60
-4.86259 28.6778 44.8986 137 51 34
-10.348 27.6667 44.5009 137 48 32
-11.2365 27.6129 44.4432 131 43 30
-11.357 28.0851 44.4645 132 44 33
-17.9847 28.5845 44.0885 64 64 32
26.0961 18.3759 45.7189 39 14 11
24.1624 19.7056 45.6808 42 12 11
22.0599 22.0288 45.6932 50 30 23
20.386 24.1127 45.7175 104 117 95
12.8597 26.8801 45.4214 41 22 11
3.78916 28.6579 44.9689 118 48 39
2.58099 29.4575 44.9432 110 55 32
-3.40569 27.477 44.451 136 54 36
-3.86552 28.2632 44.4708 133 51 33
-5.09018 29.0711 44.4446 136 49 34
-14.7072 28.0219 43.7848 132 45 42
-16.6249 28.3894 43.6886 87 51 37
-17.8702 28.6603 43.6281 67 69 39
31.3078 2.96137 44.6369 77 102 78
31.3795 4.77639 44.7539 81 102 74
25.9037 18.2268 45.2457 38 13 12
23.7382 19.9423 45.2167 43 16 10
23.3118 20.1788 45.2047 44 17 10
12.8617 26.8804 44.967 44 22 15
10.095 27.6399 44.8411 80 99 60
7.23458 27.7964 44.672 92 115 68
-3.8475 27.7218 43.9746 131 53 32
-4.96571 28.6043 43.9594 136 53 32
-11.2323 27.6135 43.5062 131 41 33
-15.1579 28.2702 43.3015 126 44 38
25.8692 18.7617 44.8248 41 11 10
9.25628 27.5878 44.3292 80 96 52
8.61823 27.6817 44.2948 76 94 51
5.95374 27.9855 44.1456 106 103 73
-3.96833 28.1896 43.5322 135 56 32
-5.08603 29.0718 43.5169 134 51 28
-15.7204 28.4432 42.8063 109 42 31
-17.6415 28.8118 42.7081 56 61 27
31.2145 2.88251 43.7086 78 100 81
31.4654 3.67366 43.7747 81 102 85
31.0921 4.54029 43.8058 78 97 77
22.066 22.0297 44.3374 42 28 16
10.9378 27.6929 43.9867 82 91 55
8.18631 27.9226 43.8259 64 83 44
-11.338 27.539 42.5575 131 41 40
-13.685 27.6028 42.412 129 39 38
-14.7009 28.0228 42.3738 130 41 36
-16.2834 28.6165 42.3106 95 54 39
30.6627 -2.30409 42.8828 60 72 54
30.483 -1.26284 42.9378 50 67 51
27.292 13.0625 43.6483 31 13 8
23.2199 20.1054 43.8366 43 18 10
20.3615 24.6439 43.9428 104 108 83
9.26036 27.5884 43.4169 68 82 39
5.95784 27.9861 43.2299 97 95 66
-4.63782 28.8277 42.6021 134 48 31
-14.8099 27.9478 41.8915 129 40 37
-15.7162 28.4439 41.865 113 43 37
-16.7351 28.8652 41.8263 62 37 23
31.2595 2.32891 42.7583 75 96 79
22.1681 22.1042 43.4447 48 32 13
11.4485 28.0581 43.1331 74 80 47
-3.96211 28.1905 42.141 125 37 30
-11.224 27.6148 41.6323 128 43 35
-13.9025 27.4525 41.4479 130 44 38
30.4701 -2.46631 41.9348 51 66 57
9.67236 27.8815 42.5505 75 96 61
8.70405 28.2891 42.5136 84 115 72
6.50078 27.8189 42.3386 98 119 82
5.52598 28.2281 42.3014 108 77 56
-4.52655 28.9025 41.6865 128 40 34
-9.22884 27.8725 41.3112 128 45 32
-10.4429 27.5939 41.2135 128 44 33
-14.353 27.7005 40.9642 129 47 38
-15.712 28.4445 40.9236 115 45 37
-16.7308 28.8659 40.8843 63 36 25
28.3269 11.5836 42.2554 42 14 11
23.3239 20.1807 42.4906 53 15 13
11.4526 28.0587 42.2241 74 90 59
5.63142 28.3018 41.8551 110 80 58
-4.04919 27.5747 41.1669 125 31 36
-5.29031 28.9251 41.1737 129 38 38
-11.67 27.8623 40.6818 111 58 38
30.9171 -5.68912 40.825 64 80 54
25.1531 20.4506 42.1781 54 12 9
24.8255 20.7606 42.1768 56 14 12
15.27 26.9686 41.9518 52 19 15
14.512 27.5185 41.9377 52 22 14
9.03935 27.9762 41.6029 99 133 92
6.50487 27.8195 41.4233 110 135 95
-4.27706 27.9685 40.7135 122 33 33
-10.5483 27.5194 40.2651 109 59 36
-14.6904 28.0244 40.0222 70 51 31
25.1552 20.4509 41.727 58 10 7
11.8611 28.3504 41.3619 93 115 85
-5.05646 28.5325 40.2347 125 32 30
-11.8859 27.7126 39.7197 75 75 41
-14.5689 27.5505 39.5281 57 58 32
-14.6883 28.0247 39.5519 57 56 33
-15.1411 28.2727 39.5381 62 58 36
30.3863 -5.53449 39.8705 59 78 58
24.6348 20.6132 41.2514 61 12 14
6.84137 27.5056 40.5093 126 110 63
-5.71412 28.6291 39.7322 129 33 32
-10.1061 27.8203 39.3789 80 72 38
-13.4397 27.2064 39.1108 55 68 37
23.8211 20.5532 40.7401 56 21 17
20.9981 24.5552 40.8203 97 84 72
15.7049 26.7311 40.6062 90 55 46
14.3177 27.3739 40.555 63 24 6
12.195 28.0389 40.455 111 76 49
11.9661 28.4237 40.4656 119 80 47
10.9279 28.2267 40.381 121 76 40
9.07037 27.4441 40.2001 121 71 32
8.53425 27.6112 40.1748 123 69 33
5.86886 27.9149 40.0128 118 48 29
2.20605 28.6316 39.8107 114 40 41
0.59341 28.6016 39.6981 123 36 35
-4.48523 27.8206 39.2965 129 33 34
-14.6759 27.4755 38.5742 51 57 34
30.4893 -5.45128 38.9541 65 88 67
26.6655 19.3603 40.4025 68 11 5
25.2944 19.9934 40.3513 64 15 10
8.63865 27.6848 39.7304 120 39 26
6.20354 27.6004 39.5561 120 34 29
3.83502 28.1258 39.4286 115 34 26
-9.88322 27.9709 38.4691 111 48 40
-10.9897 27.7673 38.3785 90 41 29
-12.7622 27.1106 38.2106 84 47 36
-13.6571 27.0559 38.1449 72 42 32
28.7861 12.5106 39.6221 65 13 9
27.3381 17.0626 39.8383 68 14 7
27.3224 18.7407 39.9541 72 17 7
21.3964 23.1854 39.8503 86 26 20
16.0378 26.4205 39.7019 101 25 14
14.2215 27.3017 39.6366 96 20 12
11.9702 28.4243 39.5577 115 32 22
9.58473 27.8106 39.3485 116 33 18
5.66625 27.7686 39.0722 118 36 26
3.73301 28.0526 38.9571 114 34 30
2.31471 28.7057 38.9037 109 35 43
0.157612 28.8453 38.7629 127 32 32
-3.3045 28.6381 38.5069 127 32 33
-14.6717 27.4762 37.6329 61 33 26
31.1302 5.72347 38.8558 81 86 65
17.0955 26.0905 39.3002 95 23 7
12.201 28.0398 39.0928 110 37 15
6.20764 27.601 38.6402 123 60 25
1.03934 28.3597 38.3298 113 42 45
-4.08195 29.2011 38.0286 129 36 34
-10.7661 27.9181 37.468 118 34 29
30.6931 -5.28533 37.5866 78 90 63
30.3497 -1.9829 37.7965 80 97 79
31.2546 4.07132 38.2903 78 98 69
21.762 22.344 38.913 79 23 10
14.1252 27.2294 38.7176 103 46 1
9.6907 27.8843 38.4494 125 74 15
8.95151 27.9053 38.3984 125 77 13
5.77377 27.8427 38.1684 135 72 31
3.52882 27.9059 38.0135 115 39 43
2.31882 28.7063 37.9844 121 69 77
0.706849 28.6766 37.8679 114 42 29
-3.51381 28.4906 37.5551 125 29 30
-8.33936 28.4734 37.2114 126 34 30
-9.00431 28.5701 37.1711 125 33 30
-14.4451 27.6279 36.7181 84 34 33
31.5071 4.85979 37.9068 78 98 78
31.1343 5.72409 37.942 83 87 70
27.3285 18.7417 38.6015 72 19 10
16.4723 26.1832 38.3572 109 65 15
12.2051 28.0404 38.1847 126 85 24
11.7743 28.2798 38.171 122 79 18
6.0052 27.4546 37.6989 144 96 30
5.13256 27.9376 37.671 113 42 12
3.32237 27.7589 37.5287 115 40 35
-11.1018 28.2404 36.5306 119 35 34
27.0997 19.1262 38.1617 71 20 14
9.38892 27.6656 37.5001 128 87 20
8.34169 27.4665 37.4101 138 97 23
7.29098 27.2667 37.3198 139 101 23
0.500571 28.5298 36.9209 123 62 36
-3.95308 28.7355 36.6142 121 32 34
-5.26955 28.9283 36.5331 131 38 33
-5.60662 29.2472 36.5318 130 37 30
-6.2666 29.344 36.4912 129 35 29
-7.03546 29.3668 36.4373 127 32 28
12.2092 28.041 37.2765 108 61 12
11.7783 28.2804 37.2626 107 62 11
6.23883 27.0666 36.7709 144 96 26
5.05512 27.3285 36.7039 138 78 37
4.41031 27.4229 36.6638 109 38 13
3.11783 27.612 36.5835 117 43 39
1.80169 28.3393 36.5407 137 94 101
-13.9861 27.3811 35.3217 111 46 44
-14.3277 27.7043 35.3203 92 51 46
30.3174 -1.42035 35.9857 42 54 36
28.0654 17.0539 37.1784 71 16 11
27.1038 19.1268 37.2602 60 32 20
22.7205 21.9456 37.1457 82 19 13
13.4019 27.2509 36.8517 91 58 7
9.29096 27.593 36.5752 122 90 19
8.0382 27.2469 36.4578 132 98 20
7.29507 27.2673 36.4047 138 100 22
2.68133 27.8546 36.1093 101 41 43
0.2941 28.3829 35.9729 113 42 31
-3.84201 28.8102 35.7007 134 49 48
-7.24735 29.219 35.4809 128 36 30
-8.34371 29.0186 35.3857 127 35 30
-9.66195 28.6682 35.2631 121 31 28
-10.2195 28.8399 35.2348 120 31 33
31.4031 3.59976 35.9762 51 68 50
22.5266 21.7982 36.6687 81 21 15
15.9818 25.8191 36.4825 106 69 18
12.2132 28.0416 36.3684 116 79 14
11.7824 28.281 36.3543 113 76 10
4.20643 27.276 35.7191 107 36 14
2.57885 27.7811 35.6361 103 38 39
-5.04868 29.0774 35.1678 120 35 32
-14.1015 27.8558 34.4073 58 34 36
-14.1101 28.4047 34.4474 52 46 41
30.4435 -3.106 34.9448 67 87 69
14.037 27.1584 35.9842 116 79 10
12.6459 27.8027 35.9286 130 92 13
9.39708 27.6668 35.676 140 98 20
7.50487 27.415 35.516 141 101 22
5.29091 26.9403 35.3153 144 95 33
3.45799 27.2969 35.2053 100 28 15
-1.76487 28.5966 34.9128 106 30 27
-8.66546 28.7958 34.4129 127 35 29
-10.2039 28.295 34.2607 122 34 27
-11.4313 28.5637 34.1892 102 39 32
-14.6712 28.5776 33.9485 61 46 35
22.2364 21.577 35.7262 86 29 18
15.886 25.7465 35.563 96 67 3
11.7865 28.2816 35.4459 134 97 14
8.2494 27.3946 35.113 138 101 20
2.6875 27.8555 34.7294 97 30 19
1.39038 28.0456 34.6462 100 40 34
0.0894942 28.2361 34.5628 111 38 36
-2.63002 28.5449 34.3815 110 36 27
-5.38143 29.3969 34.2388 121 31 27
-8.7721 28.7215 33.9329 129 35 26
-10.7604 28.467 33.7642 123 36 27
31.2865 5.25496 34.7185 80 95 78
30.736 7.13761 34.8199 33 14 2
11.3839 27.9908 34.9389 135 99 14
8.14898 27.3216 34.6428 135 100 18
4.2126 27.2769 34.3409 99 33 10
3.4621 27.2975 34.2856 96 28 12
0.531912 27.9933 34.1164 102 35 34
-11.098 28.7888 33.2952 115 31 28
-14.7862 29.0514 33.0355 91 40 37
28.3652 17.2801 34.9603 65 17 12
21.4204 21.5184 34.7547 88 34 24
15.49 25.4541 34.6034 94 65 7
9.32621 27.061 34.2556 133 94 21
7.94578 27.175 34.1588 137 97 30
6.14783 26.9948 34.0076 139 93 31
3.13017 27.6139 33.8245 102 34 21
-0.452606 28.4061 33.6115 108 36 31
-2.73231 28.4715 33.4423 125 52 33
-3.06847 28.7896 33.441 126 47 32
-5.14768 29.0046 33.2986 115 33 28
-15.1095 28.2775 32.4815 102 36 37
30.3226 11.4195 34.2064 33 19 15
8.27991 26.861 33.7029 130 92 33
7.84521 27.1019 33.688 132 93 40
4.42468 27.4251 33.4496 96 26 8
2.79823 27.9302 33.3634 96 35 22
-2.9599 28.8639 32.9921 124 43 33
-3.9523 29.2785 32.9477 114 37 28
-8.53579 28.3273 32.5211 120 33 26
30.831 10.0994 33.689 64 26 17
30.0917 11.8083 33.7649 20 14 5
21.9499 21.3562 33.8774 88 28 18
13.0865 27.565 33.6735 110 92 32
5.84167 26.7741 33.0494 138 114 57
3.23864 27.6882 32.9187 102 36 21
1.39862 28.0468 32.8038 101 47 34
0.0977479 28.2374 32.7177 107 33 28
-6.01827 28.9534 32.2987 110 34 27
-10.752 28.4683 31.8934 129 35 31
-11.8707 28.8122 31.8334 119 35 31
-15.0974 27.7284 31.4984 114 38 35
-15.1053 28.2781 31.5407 110 35 34
28.2366 17.7406 33.6323 37 25 16
13.3453 26.6492 33.1677 116 101 71
12.8137 26.8153 33.1392 114 107 69
12.4836 27.1277 33.1379 114 112 66
8.18146 26.7881 32.7747 133 143 69
-13.5328 28.2345 31.1896 116 33 33
-14.9999 28.9026 31.1274 116 39 41
30.5537 -10.2597 31.1446 45 15 8
30.6984 10.5661 32.8066 63 15 12
13.6773 26.3372 32.7147 129 103 73
12.2836 26.9818 32.6559 115 109 67
9.15497 26.3808 32.3616 146 150 82
6.59221 26.7547 32.1892 154 154 89
0.207276 28.3119 31.8093 114 35 24
