ply
format ascii 1.0
element vertex 1310
property float x
property float y
property float z
property uchar red
property uchar green
property uchar blue
end_header
-25.3274 20.2621 1.68208 100 28 73
-26.7211 18.3777 1.86149 96 33 78
-26.9092 17.4942 1.86251 115 76 112
-27.1283 9.46858 1.60572 87 67 76
-27.3693 7.16634 1.56389 85 66 64
-27.233 6.63545 1.51998 81 63 58
-27.0006 17.0514 1.41142 131 90 120
-27.3458 1.3962 0.893308 105 58 74
-27.3038 0.416904 0.849484 106 53 70
-28.0947 -10.3812 0.591315 106 52 70
-28.4003 -11.2242 0.614915 108 51 69
-28.4536 -12.6583 0.571337 110 51 73
-26.9038 17.492 0.959303 106 49 74
-27.1859 16.1669 0.960838 107 56 77
-27.3741 15.2835 0.961862 95 46 69
-27.5622 14.4001 0.962885 104 52 79
-26.8709 8.89348 0.633227 87 36 66
-27.0387 7.51999 0.612321 86 34 63
-27.3954 5.25888 0.592444 86 34 68
-26.2426 20.5829 0.504112 85 27 63
-26.4307 19.6995 0.505136 86 28 64
-27.1383 9.95017 -0.183709 66 31 57
-28.0243 12.1882 -0.389362 53 31 60
-24.0715 29.0435 138.236 81 87 46
-29.4368 15.266 137.94 52 57 64
-29.4683 14.3633 137.946 44 53 57
-24.069 29.04 137.781 83 80 55
-29.5237 12.5476 136.605 45 53 67
-22.6872 29.2941 135.603 77 37 51
-24.4401 28.6175 135.476 72 27 49
-29.1519 22.9142 134.721 47 64 62
-29.5138 12.5337 134.799 61 65 67
-29.084 24.7126 133.804 68 77 55
-29.5088 12.5268 133.896 72 83 77
-29.0947 24.2543 132.904 64 74 57
-29.1502 22.4386 131.563 70 78 73
-29.1195 22.8691 128.85 61 72 87
-19.7804 29.3126 128.929 66 32 42
-29.083 23.7648 127.94 53 72 74
-29.1302 22.4108 127.95 67 78 94
-24.5993 26.2989 127.741 47 53 49
-29.1228 22.4004 126.596 68 78 101
-19.4862 30.1803 126.639 56 70 56
-29.1178 22.3934 125.692 69 80 103
-19.6059 30.1899 125.712 57 70 57
-23.835 26.6325 125.503 43 56 51
-29.0971 22.8378 124.786 69 77 93
-22.6426 28.7529 124.637 48 63 49
-23.7046 26.6046 124.142 41 59 55
-29.2022 19.6716 123.906 87 94 133
-22.8087 27.3927 123.726 46 59 53
-24.656 23.9914 123.659 57 69 73
-29.1028 22.3726 122.983 72 80 106
-29.1947 19.6611 122.552 90 93 140
-22.4285 27.3269 121.917 48 62 51
-29.0954 22.3622 121.628 72 84 96
-29.2055 19.2029 121.652 94 98 141
-22.9352 26.9357 121.439 47 64 52
-22.7936 27.3716 120.984 51 65 53
-29.0904 22.3552 120.725 72 82 92
-29.2005 19.1959 120.749 93 97 134
-28.3133 -25.1739 120.746 82 111 106
-26.0852 24.6323 119.941 60 70 70
-29.0854 22.3483 119.822 72 85 87
-30.6091 -21.4339 119.698 117 133 59
-28.0659 -25.24 119.85 86 110 108
-27.3265 23.8969 118.983 65 77 74
-28.5612 -25.5821 118.923 99 105 105
-24.5281 26.6769 117.717 57 73 65
-29.0572 22.7822 117.56 74 81 83
-29.1359 20.5256 117.577 82 90 99
-24.5231 26.6699 116.806 59 74 65
-29.0522 22.7753 116.657 73 82 87
-29.0837 21.8726 116.664 74 85 89
-29.1152 20.97 116.671 79 89 97
-29.063 22.317 115.757 76 83 92
-23.8547 27.9398 115.454 67 76 74
-29.058 22.31 114.854 75 84 92
-29.0895 21.4074 114.861 82 90 101
-29.0215 23.2057 113.944 75 83 91
-29.0845 21.4004 113.958 90 94 110
-29.0455 22.2927 112.596 89 97 113
-29.0513 21.8274 110.793 94 96 116
-28.9941 23.1675 108.977 94 99 125
-29.0256 22.2649 108.983 95 100 131
-21.9846 28.4565 94.9264 63 38 54
-27.2528 -23.7704 93.96 134 148 176
-29.0097 -25.1767 93.5247 150 88 109
-26.8544 -23.4281 90.772 142 150 180
-28.8689 -25.2341 89.8996 150 85 115
-25.9614 -22.7327 89.3912 133 142 176
-25.7732 -20.9437 88.9205 126 131 160
-25.9906 -23.6468 88.9424 142 151 187
-25.9564 -22.7397 88.4801 135 142 177
-25.8609 -23.6866 87.574 149 157 192
-25.933 -22.2949 87.11 136 138 174
-25.9463 -22.7537 86.6578 136 140 173
-25.8559 -23.6936 86.6626 146 155 187
-26.2917 -22.2186 85.75 132 140 161
-27.5089 -25.5978 84.8889 151 80 115
-28.3502 -25.401 83.5454 149 76 108
-19.2965 27.9884 80.6706 88 87 113
-28.3509 -25.8752 80.8277 151 66 104
-25.7972 -23.2978 78.9128 154 164 195
-25.5636 -23.8189 77.9967 155 169 193
-23.0032 -25.3681 76.0846 166 176 212
-23.3182 -23.9164 74.7145 157 164 196
-23.3501 -24.8316 74.7214 164 173 210
-23.382 -25.7467 74.7282 182 171 185
-23.9614 -24.6902 73.8312 166 165 192
-26.6798 -24.9612 72.5847 163 115 128
-26.4369 -21.8215 70.7354 153 159 182
-26.5696 -22.2544 69.8348 156 166 182
-26.5512 -21.8032 69.3765 154 160 181
-26.4317 -25.5032 68.9364 113 60 80
-25.9629 -22.8718 67.5308 157 163 181
-25.8725 -23.8115 67.5311 158 162 187
-22.5412 25.5831 66.6151 88 89 115
-25.5753 -22.5106 66.5961 156 162 177
-25.3783 -23.9359 66.5928 156 163 177
-22.4884 26.9462 65.6908 89 86 116
-22.7828 25.6114 65.7152 86 89 117
-25.448 -22.5467 65.6776 158 160 177
-25.4798 -23.4579 65.6844 157 163 178
-23.8725 -27.0689 65.6099 103 37 52
-25.2299 -23.5235 64.7582 155 162 166
-24.796 -21.7903 64.2663 152 159 177
-24.8119 -22.2465 64.2698 152 160 175
-24.8253 -22.7061 63.8167 155 162 173
-22.0233 29.1582 62.9088 81 78 101
-24.9137 -21.7684 63.361 156 161 176
-25.2223 -23.534 63.3899 153 160 162
-23.4124 24.763 62.5636 89 89 116
-25.0973 -23.5668 62.9261 157 161 158
-23.4875 -27.1807 62.8423 79 44 48
-25.0471 -22.2025 62.4596 151 162 172
-23.5462 24.3179 61.6626 94 88 121
-24.847 -23.6325 61.9979 155 159 162
-25.0262 -21.7536 61.5438 152 153 174
-24.8127 -22.7237 61.5346 154 154 179
-25.4019 -22.1332 60.2035 155 156 174
-21.0232 -28.733 59.4745 92 65 70
-20.8936 -28.7709 58.5459 86 88 83
-25.4187 22.7304 56.7961 96 94 122
-25.4955 -25.347 57.0363 111 106 98
-25.5515 22.2875 55.8998 98 93 122
-25.735 -25.2947 56.143 111 107 99
-25.9303 21.8851 55.4771 99 93 127
-25.8547 -25.2685 55.6968 113 112 102
-24.8997 26.7525 54.9188 76 43 64
-28.7762 20.4975 55.2541 102 97 130
-16.1793 29.6952 53.7554 33 27 36
-28.7895 20.0427 54.8059 102 100 129
-24.3736 27.5862 53.9633 51 28 40
-25.3421 -24.9421 54.2878 120 118 106
-25.4804 -25.3681 54.3009 116 118 106
-24.3926 -26.0926 54.2167 115 117 105
-28.7845 20.0357 53.9027 103 100 131
-14.1776 -30.4637 52.9485 114 98 104
-25.3212 -24.4934 53.3724 143 139 134
-24.7242 -25.0974 53.326 125 120 112
-28.7795 20.0288 52.9995 106 104 132
-25.0737 -24.5559 52.8963 141 137 134
-24.6148 -25.5869 52.8629 117 111 109
-27.5067 21.647 52.4337 101 93 127
-27.6592 20.7608 52.4506 102 99 129
-28.7563 20.4697 51.6413 106 102 128
-23.374 -25.8999 50.9309 111 107 100
-27.2388 22.0488 50.5986 94 47 89
-28.7513 20.4627 50.7382 108 76 115
-27.4601 22.5308 49.711 88 32 63
-28.7463 20.4558 49.835 95 32 68
-24.8699 -22.7858 49.6783 122 26 58
-24.1783 -24.3345 49.1666 128 61 90
-27.4236 23.4287 48.7989 77 27 59
-27.5762 22.5421 48.8166 80 31 60
-28.7099 21.3515 48.925 90 30 63
-24.0687 -24.8243 48.7019 129 74 96
-23.8928 -23.4903 47.7662 129 40 62
-23.002 -26.4723 47.6962 116 75 71
-28.6709 22.2437 47.5635 89 32 68
-28.7496 19.9871 47.5804 91 26 61
-23.566 -24.9572 46.8275 131 65 105
-22.1146 -26.232 46.6956 133 72 90
-27.3638 24.7684 46.5254 61 23 43
-28.666 22.2368 46.6603 87 30 66
-28.7604 19.5288 46.6806 95 24 64
-23.7915 -24.4478 45.9326 125 55 100
-22.7447 -26.5467 45.8404 100 39 48
-28.6924 21.3272 45.7639 87 29 64
-23.0783 -25.5479 44.9529 145 102 113
-22.3524 -26.1859 44.8843 126 84 89
-28.7032 20.8689 44.8641 82 26 63
-23.1515 -24.1489 44.4968 134 66 86
-22.3313 -25.7346 43.9637 134 103 107
-13.3555 -30.729 43.0873 94 85 74
-24.5449 27.9946 43.514 43 30 42
-28.6195 23.1186 43.9439 87 30 59
-28.6825 21.3133 43.9575 89 26 68
-28.7139 20.4106 43.9643 82 24 63
-13.6093 -30.6692 42.6463 97 86 77
-22.0758 -25.8052 42.5627 103 92 94
-21.8438 -26.324 42.5409 109 84 87
-14.8656 -29.8952 41.8397 79 64 68
-28.7065 20.4002 42.6095 87 25 62
-28.7379 19.4975 42.6162 86 26 62
-22.4105 -24.8058 41.6765 97 45 72
-28.7015 20.3933 41.7063 90 23 63
-22.1763 -25.3273 41.1957 103 63 82
-23.9172 27.8885 40.7193 36 22 35
-21.4772 -26.8877 40.669 91 61 57
-27.0942 21.0484 40.6293 91 23 65
-22.0472 -25.3643 40.2651 93 62 81
-27.0892 21.0414 39.7234 96 27 63
-27.6051 20.211 39.7825 91 23 59
-21.2172 -23.2549 39.2499 75 24 55
-22.0421 -25.3713 39.3474 82 55 80
-22.1477 -24.8865 38.8986 72 37 69
-26.5624 25.509 38.7435 84 24 54
-27.0842 21.0344 38.8174 94 24 64
-21.2121 -23.262 38.331 73 24 58
-21.478 -27.3681 37.9162 80 54 64
-26.6788 25.5196 37.8504 80 23 52
-26.8316 24.6314 37.8708 88 30 60
-27.0161 22.8383 37.8979 92 28 65
-21.207 -23.2691 37.412 72 23 55
-23.0817 -23.2865 37.6223 76 27 59
-27.0609 21.4767 37.4551 91 23 63
-18.5055 -29.033 36.6679 116 103 90
-26.7735 19.1526 36.9779 90 23 61
-23.57 -23.1763 36.7624 83 23 61
-22.985 -24.2383 36.6995 86 30 61
-25.4093 -22.7421 36.5148 86 20 59
-26.6287 19.5763 35.6005 88 23 63
-25.8774 -22.1778 35.6565 95 20 55
-28.5415 23.4831 32.6507 35 26 40
-28.5365 23.4761 31.7476 49 22 45
-16.1407 30.4511 29.7211 29 30 28
-28.5315 23.4692 30.8444 44 28 50
-28.563 22.5665 30.8511 50 30 44
-28.6102 21.2125 30.8613 72 25 53
-28.5266 23.4622 29.9412 48 28 47
-28.5738 22.1082 29.9513 79 46 57
-28.6052 21.2056 29.9581 84 31 58
-28.6839 18.9489 29.975 87 23 64
-30.0503 -20.3199 29.818 70 35 55
-30.1604 -23.4792 29.8417 129 46 61
-28.5506 22.5491 28.5932 74 24 52
-28.582 21.6465 28.5999 81 26 56
-28.6922 18.4872 28.6236 87 25 64
-30.0925 -21.6808 28.9249 86 19 42
-30.124 -22.5835 28.9317 115 24 54
-29.083 7.20056 28.2567 101 32 76
-28.5456 22.5422 27.69 75 23 55
-28.5928 21.1882 27.7001 83 24 59
-28.6872 18.4802 27.7205 91 24 69
-29.0805 7.19709 27.8051 100 33 75
-28.5406 22.5352 26.7868 73 24 54
-28.6822 18.4733 26.8173 89 25 66
-28.9811 9.8981 26.8816 91 27 73
-29.0283 8.54412 26.8917 96 26 72
-29.0598 7.64147 26.8985 96 27 72
-29.9699 -18.5389 26.6433 77 35 57
-28.7873 15.3071 25.9378 96 27 73
-28.9604 10.3425 25.975 90 28 73
-25.3263 27.0586 24.5273 52 42 49
-26.3949 24.4771 24.6813 69 20 54
-28.5306 22.5213 24.9804 76 23 60
-29.9781 -19.0007 25.2919 41 32 44
-28.7799 15.2966 24.583 98 27 72
-30.0543 -21.2608 24.8572 72 30 49
-26.3 23.5458 23.7644 71 23 56
-28.5231 22.5109 23.6257 77 23 62
-28.8378 13.4844 23.6934 91 27 74
-26.4165 23.5569 22.8745 72 23 60
-28.5182 22.504 22.7225 80 22 64
-28.8328 13.4774 22.7902 88 30 77
-29.7139 -11.7968 22.9797 53 45 67
-29.7297 -12.2481 22.9831 50 43 62
-29.7611 -13.1508 22.9899 50 42 58
-29.7901 -14.0569 22.5451 44 42 54
-29.8688 -16.3136 22.562 36 31 39
-28.5132 22.497 21.8193 81 25 59
-24.9559 26.5247 20.8438 44 21 46
-29.6593 -10.4533 21.6148 91 58 113
-29.7222 -12.2586 21.6284 68 59 103
-29.7537 -13.1612 21.6351 59 61 93
-29.8009 -14.5152 21.6453 48 47 59
-23.9268 27.7479 20.2368 35 24 39
-28.5082 22.4901 20.9161 82 23 60
-28.6183 19.3308 20.9398 90 27 67
-28.6498 18.4281 20.9466 90 39 81
-28.7127 16.6228 20.9601 132 124 143
-28.7599 15.2688 20.9703 136 126 152
-23.7699 28.6379 19.7566 36 30 39
-24.9826 25.6091 19.9414 53 24 44
-29.6543 -10.4602 20.7116 116 93 113
-29.7959 -14.5221 20.7421 85 73 74
-29.969 -19.4867 20.7793 44 28 36
-28.485 22.931 19.5579 75 24 65
-28.6108 19.3204 19.585 83 30 68
-28.8154 13.4531 19.629 93 78 94
-29.6493 -10.4672 19.8084 90 80 92
-29.7909 -14.5291 19.8389 87 63 79
-29.9482 -19.0424 19.8728 49 34 45
-24.1028 25.9306 18.4469 52 23 51
-23.4233 27.662 17.8862 44 23 38
-28.6059 19.3134 18.6818 81 29 72
-29.6443 -10.4741 18.9053 91 75 95
-29.723 -12.7307 18.9222 142 135 155
-29.7545 -13.6334 18.929 149 132 137
-29.7859 -14.536 18.9357 89 56 64
-29.8331 -15.89 18.9459 61 25 51
-29.8646 -16.7927 18.9526 61 24 45
-29.9433 -19.0493 18.9696 47 29 41
-28.6009 19.3065 17.7786 75 33 72
-28.6324 18.4038 17.7854 73 43 88
-23.5703 26.7575 16.544 65 22 47
-29.7784 -14.5465 17.5809 114 51 75
-29.8256 -15.9004 17.5911 104 30 66
-29.9515 -19.5111 17.6182 76 23 47
-28.533 21.1048 16.8619 73 27 70
-28.6274 18.3969 16.8822 71 43 91
-28.8004 13.4323 16.9195 88 74 88
-29.8049 -15.4561 16.6845 103 31 74
-29.9465 -19.518 16.715 78 20 51
-28.4178 24.2572 15.935 69 44 56
-28.528 21.0979 15.9587 80 28 68
-28.6853 16.5846 15.9926 135 128 149
-28.7168 15.682 15.9994 138 126 149
-29.7999 -15.463 15.7813 105 31 76
-29.9416 -19.525 15.8118 96 20 54
-28.5048 21.5388 14.6006 76 32 63
-28.5677 19.7335 14.6141 84 30 69
-29.795 -15.47 14.8782 104 30 74
-29.8264 -16.3726 14.8849 101 31 73
-29.9366 -19.5319 14.9086 101 22 56
-28.5942 18.8239 13.7177 95 35 84
-29.8372 -16.8309 13.9851 99 30 71
-29.9291 -19.5423 13.5538 103 28 63
-28.4161 23.7815 12.7773 44 42 44
-28.6836 16.109 12.8348 137 130 146
-19.0035 -25.8184 10.8916 102 34 57
-28.5685 19.2613 11.9079 62 45 63
-28.6 18.3587 11.9147 71 61 86
-28.6786 16.102 11.9316 138 130 145
-28.773 13.3941 11.952 85 72 77
-28.8674 10.6861 11.9723 106 96 110
-27.8364 -19.129 11.4054 94 29 68
-28.3364 -19.4695 11.4879 95 30 67
-27.7468 -20.0635 11.3924 97 29 66
-27.2403 25.8679 10.7751 47 55 42
-27.7601 -20.5203 10.9423 95 30 64
-28.561 19.2509 10.5532 65 28 50
-28.5925 18.3482 10.5599 71 53 77
-28.6082 17.8969 10.5633 96 88 109
-28.6554 16.5429 10.5735 142 128 149
-29.1589 2.10048 10.6818 68 67 74
-29.5837 -10.0853 10.7732 89 86 99
-28.556 19.2439 9.64998 87 31 64
-28.5875 18.3413 9.65675 87 56 87
-28.619 17.4386 9.66352 132 121 150
-28.6504 16.536 9.67029 143 129 144
-28.7606 13.3767 9.69398 84 69 74
-29.1382 2.54487 9.77523 65 55 70
-29.5158 -8.28697 9.85648 97 91 109
-28.673 -18.9467 9.73315 88 29 67
-28.6888 -19.3991 9.73655 91 29 68
-18.5319 -27.3487 7.58813 140 105 96
-28.551 19.237 8.74679 89 33 69
-28.5825 18.3343 8.75356 93 61 90
-28.614 17.4317 8.76033 133 123 147
-28.6454 16.529 8.7671 139 130 144
-28.6769 15.6264 8.77387 138 130 140
-29.0545 4.79455 8.85512 52 52 50
-29.2748 -1.52402 8.90251 81 68 70
-29.5738 -10.0992 8.96683 86 82 95
-28.6522 -18.5013 8.82444 87 29 71
-28.5789 -19.8866 8.81424 92 29 76
-20.4811 -25.4891 6.99385 99 34 57
-28.4674 21.4867 7.82668 88 30 70
-28.5461 19.23 7.84361 92 31 70
-28.5775 18.3274 7.85038 99 62 94
-28.609 17.4247 7.85715 136 123 149
-28.6405 16.5221 7.86392 135 127 140
-28.7191 14.2655 7.88084 113 100 109
-28.7506 13.3628 7.88761 80 65 71
-29.1282 2.53097 7.96886 66 59 68
-29.1597 1.62832 7.97563 71 67 73
-29.2069 0.274341 7.98579 67 59 72
-29.2698 -1.53096 7.99933 84 72 80
-28.6472 -18.5082 7.91913 89 30 66
-28.6788 -19.413 7.92591 87 29 67
-28.4624 21.4797 6.92349 91 28 71
-27.6068 18.167 6.78068 98 68 93
-27.6384 17.2626 6.78747 131 124 141
-28.6355 16.5151 6.96073 135 127 140
-28.7141 14.2585 6.97766 110 100 110
-28.7456 13.3559 6.98443 76 65 73
-19.5325 -23.8716 4.98848 97 30 66
-19.5646 -24.7927 4.99539 96 32 57
-19.1119 -26.2953 4.91901 94 50 58
-27.1018 18.5356 5.78805 92 41 75
-29.4934 -8.31823 5.79214 92 90 91
-29.6979 -14.1855 5.83614 100 47 73
-27.2022 19.0003 4.90023 97 35 74
-27.2338 18.0953 4.90702 107 72 100
-28.7357 13.342 5.17806 73 60 73
-27.7676 2.70691 4.56965 54 51 56
-27.6781 1.77882 4.55505 72 62 65
-27.5887 0.850285 4.54043 57 52 61
-29.4884 -8.32518 4.88895 92 90 90
-27.1815 19.4459 3.9913 99 30 76
-27.213 18.5409 3.99809 97 46 83
-26.91 16.6686 3.49397 132 122 139
-27.6727 -19.2163 3.67583 83 29 69
-28.3298 24.6077 2.83546 83 29 67
-27.0528 19.4165 2.61116 96 30 78
-26.9025 16.6582 2.13471 111 94 109
-28.3406 24.1495 1.93566 83 27 67
-27.0478 19.4095 1.70542 87 30 72
-26.9158 16.2019 1.68503 79 69 72
-27.0611 18.9534 1.25593 82 31 71
-27.164 19.4215 0.821944 81 29 68
-26.9108 16.1949 0.778856 83 47 77
-30.1259 20.9349 133.77 55 73 51
-23.794 26.6055 126.887 44 61 49
-28.5658 20.4952 123.873 73 79 113
-22.3941 26.6431 120.975 52 66 50
-25.6844 -24.8121 118.924 113 118 63
-25.5597 -25.7067 118.928 86 98 66
-25.3727 -27.0485 118.934 73 79 62
-25.605 -25.2876 111.7 125 136 83
-25.5363 -25.7455 108.993 121 130 86
-25.4116 -26.64 108.996 126 113 85
-25.3482 -27.0891 108.547 127 94 78
-25.5267 -25.7613 104.928 121 124 95
-24.1679 -26.727 104.949 125 103 93
-22.8633 -27.2515 104.06 124 87 76
-22.6753 -27.71 103.61 132 77 71
-22.6732 -27.7136 102.702 131 73 72
-24.4049 -25.8429 99.9652 117 122 108
-23.843 -27.2146 98.6139 123 75 72
-25.6967 -24.4477 97.6968 121 122 114
-23.8366 -27.2252 95.8965 126 70 71
-22.5945 -28.1897 95.8964 144 67 84
-25.5033 -25.8001 94.9928 127 123 123
-22.4679 -28.2007 94.9881 144 66 82
-25.7473 -24.0198 92.7272 123 132 137
-25.6829 -24.4706 91.8259 125 133 138
-25.6808 -24.4741 90.9227 130 132 151
-25.9914 -22.2394 90.4616 124 130 163
-25.8667 -23.134 90.4654 127 133 165
-25.8646 -23.1375 89.5622 129 135 165
-25.6776 -24.4794 89.5678 130 137 163
-22.2677 -27.7889 89.0806 141 59 84
-25.6754 -24.4829 88.6646 137 137 171
-22.141 -27.7999 88.17 140 57 77
-26.2343 -20.4609 87.7444 127 122 162
-22.0142 -27.8109 87.2589 140 54 80
-26.2322 -20.4644 86.8412 128 128 155
-25.5465 -25.3845 86.862 145 144 163
-22.0121 -27.8144 86.3502 139 59 83
-26.2301 -20.4679 85.938 131 131 173
-26.0431 -21.8098 85.9436 134 134 168
-25.9184 -22.7043 85.9474 132 132 164
-22.011 -27.8162 85.8958 137 57 82
-13.7027 29.6809 84.8098 81 85 104
-22.257 -27.8066 84.5389 141 58 79
-21.9451 -28.2715 84.5345 139 58 81
-22.8152 -27.3312 83.642 136 58 72
-22.6888 -27.342 82.7309 136 54 74
-22.5622 -27.3528 81.8195 134 51 77
-16.6495 -29.5027 81.6559 140 54 91
-23.5559 -25.5167 80.9278 153 145 154
-22.059 -28.2817 79.9948 142 50 82
-25.7725 -23.6342 76.919 146 152 167
-19.6214 27.5064 75.7039 81 72 100
-24.0985 -27.7294 75.9868 185 160 143
-19.9167 -28.4351 73.5375 145 61 77
-23.9709 -25.9679 73.2465 155 124 129
-22.6663 -27.3792 73.2 145 68 77
-24.2797 -25.5074 72.8034 159 141 147
-24.8985 -22.8103 71.4464 152 157 175
-22.6621 -27.3863 71.3846 140 57 74
-22.9096 -27.3734 70.9434 138 56 77
-23.527 -27.3423 69.6158 126 43 75
-22.1504 -28.3291 65.9196 103 35 62
-22.1302 25.504 62.9279 77 80 101
-21.6234 27.36 61.9472 48 47 59
-24.0701 -26.0016 62.8383 125 97 95
-25.9233 -22.3522 61.5587 147 150 172
-25.5472 -25.0395 60.6668 161 149 150
-25.3601 -26.3813 60.6725 114 45 61
-25.4827 -25.4903 59.7655 150 120 118
-24.3805 22.6516 58.53 87 87 109
-25.4806 -25.4938 58.8623 143 130 136
-26.1642 -20.5772 57.9382 140 144 165
-24.753 23.5429 56.7122 86 68 98
-19.3748 -29.4262 57.0921 94 90 82
-24.8759 23.5345 55.8058 78 48 77
-16.2939 29.8953 54.0936 33 32 33
-24.4325 24.9086 52.5395 78 37 56
-26.0465 23.9193 49.4944 73 23 46
-29.2492 20.173 48.4904 85 26 58
-25.7657 -23.3014 47.5626 132 47 70
-24.2203 -24.7181 46.9852 124 38 71
-23.8477 -25.6288 46.9651 132 79 99
-23.2266 -26.5545 46.9209 141 92 93
-23.9672 -25.629 45.1655 139 94 106
-23.2838 -26.1142 44.6519 149 115 123
-22.9103 -27.0268 44.6306 97 53 62
-26.7095 20.6902 43.6815 79 26 54
-26.0065 -21.5264 43.9422 94 50 67
-25.6948 -23.7628 43.9516 98 56 63
-23.2201 -25.6756 43.7304 124 96 102
-22.7212 -27.487 43.7124 82 33 55
-23.5925 -24.7656 43.2988 72 64 68
-23.0938 -25.686 42.8103 83 75 82
-22.907 -26.1423 42.7992 114 105 113
-25.754 -23.3208 42.5949 63 34 53
-23.7768 -24.3136 42.4033 66 38 55
-14.1924 -30.2583 41.4962 60 31 52
-22.4064 -27.0663 41.8559 103 72 82
-23.03 -24.3566 41.4171 98 28 55
-25.9325 -21.9931 38.9764 72 25 51
-24.5136 -22.5077 38.8257 74 26 55
-21.7714 -27.1221 36.789 128 104 103
-22.0796 -27.5556 35.4714 112 85 89
-28.2888 17.8894 34.81 80 23 57
-22.3893 -27.0947 34.5908 123 56 63
-28.962 17.416 33.9937 79 24 60
-22.6997 -26.6325 34.165 122 32 55
-22.4498 -26.6485 33.6808 122 22 51
-22.2626 -27.1055 33.6675 123 23 49
-27.5525 23.332 30.9622 46 29 46
-22.3157 -26.6716 29.5781 133 59 55
-22.5634 -25.7686 28.6823 126 47 59
-22.3135 -26.6752 28.6697 120 57 51
-30.0825 7.93106 27.5594 94 30 71
-29.3302 2.55658 25.7756 104 27 81
-25.4857 23.8352 22.9116 64 23 51
-29.3608 15.1118 23.6722 87 28 68
-30.448 10.6007 23.9351 86 31 74
-22.2399 -26.2519 23.6544 86 42 49
-23.2315 -26.2009 22.4342 89 67 43
-30.0339 16.4388 21.9257 118 100 131
-22.6634 28.0629 20.1068 35 30 36
-30.6297 11.9337 21.6714 90 74 90
-21.8412 28.5592 19.513 39 32 38
-29.372 21.4135 20.7998 77 27 57
-29.9147 18.2391 20.9584 80 37 71
-30.5653 11.4829 20.7701 59 59 79
-25.8276 -22.5108 20.9139 52 20 41
-25.5159 -24.7473 20.9234 93 27 51
-29.4839 18.6968 19.5236 75 34 64
-30.7501 12.8212 19.8612 72 59 72
-30.5631 11.4794 19.8669 51 55 66
-25.8244 -22.5161 19.5591 100 26 56
-30.6857 12.3704 18.9599 49 48 57
-30.561 11.4759 18.9637 50 55 66
-30 7.45029 18.9807 48 45 65
-23.6544 -26.6392 17.9772 93 39 48
-30.5578 11.4706 17.6088 51 56 64
-25.8202 -22.5232 17.7527 114 24 66
-30.0195 15.5199 16.9691 129 120 141
-30.5557 11.4671 16.7056 51 56 57
-25.8804 -22.0794 16.8475 103 23 66
-25.5687 -24.3158 16.857 115 25 70
-29.7779 17.3223 15.9792 115 100 122
-29.6529 16.425 15.983 126 116 138
-30.6782 12.3581 15.7986 50 45 63
-30.5536 11.4635 15.8024 55 58 65
-30.0142 15.511 14.7063 129 120 134
-30.6761 12.3546 14.8954 48 44 57
-30.5514 11.46 14.8992 54 58 61
-22.3462 -21.8137 14.0161 99 25 66
-30.674 12.3511 13.9922 50 45 63
-30.6116 11.9038 13.9941 47 40 46
-24.3313 -22.611 13.903 105 26 65
-30.1742 8.771 13.5557 62 53 49
-29.7653 15.5096 12.8559 131 121 140
-28.9877 0.269044 12.6885 56 46 72
-28.7383 -1.52011 12.696 71 58 82
-27.3227 24.6228 10.8445 45 49 44
-28.7985 -1.07634 11.7909 65 60 82
-25.557 -24.3352 11.8893 100 27 61
-30.2312 9.20947 11.2958 73 65 63
-26.0546 -20.7587 11.4226 97 27 69
-27.3205 24.6193 9.93245 45 45 41
-26.0535 -20.7605 10.971 97 28 68
-25.9289 -21.655 10.9747 92 26 60
-25.4925 -24.786 10.988 101 30 58
-25.3678 -25.6806 10.9918 119 55 56
-27.5629 22.7926 9.56791 73 27 53
-30.2291 9.20595 10.3926 73 63 63
-26.1127 -20.3185 9.61425 93 29 74
-25.4249 -25.2421 8.73184 104 35 53
-26.8554 -14.9598 7.33349 93 38 76
-29.2232 2.03527 6.80998 59 60 59
-29.0985 1.1407 6.81377 65 63 57
-25.9193 -21.6709 6.91027 96 29 69
-25.857 -22.1182 6.91216 96 29 68
-26.8533 -14.9634 6.43027 93 37 76
-29.2834 2.47904 5.90486 54 49 56
-29.1587 1.58446 5.90865 66 58 59
-26.8522 -14.9651 5.97866 93 38 73
-26.6029 -16.7543 5.98623 86 30 73
-26.5395 -17.2033 5.53652 85 30 72
-26.3503 -18.5487 4.63898 84 31 73
-26.4106 -18.1049 3.73387 83 28 74
-26.7201 -15.872 2.82119 95 28 71
-26.4084 -18.1085 2.83065 87 30 77
-23.3745 -23.1478 2.4252 88 33 71
-28.2141 -5.14069 1.87256 91 74 92
-26.905 -14.5337 1.9123 108 41 72
-26.718 -15.8756 1.91797 103 28 73
-26.5933 -16.7701 1.92176 103 29 74
-26.9018 -14.539 0.557468 93 30 66
-26.7148 -15.8808 0.563145 96 27 71
-26.5901 -16.7754 0.566929 98 28 71
-23.3777 -25.3318 112.78 122 107 84
-8.49271 -29.4843 109.571 150 82 78
-8.48544 -29.493 108.646 151 80 77
-22.7774 -27.1112 106.478 137 61 58
-22.9995 -26.3143 99.6944 131 58 66
-22.5724 -27.6214 97.9034 123 54 84
-22.8406 -26.7697 96.9901 135 54 66
-22.6994 -27.204 96.5436 135 55 62
-22.2652 -28.5195 93.8494 136 47 67
-22.5334 -27.6678 92.936 137 50 65
-22.2581 -28.528 92.9462 136 47 66
-22.3851 -28.1105 91.5864 133 51 67
-22.9287 -26.3986 90.6628 133 49 66
-21.6897 -30.2694 90.7087 123 72 73
-24.0229 -22.9663 89.7189 130 132 160
-23.3275 -25.1252 88.8412 139 93 100
-21.5379 -30.7164 88.9075 124 59 74
-24.1464 -22.5531 87.9075 134 136 168
-23.7334 -23.8434 87.9228 141 142 165
-23.458 -24.7035 87.933 146 119 133
-23.1827 -25.5637 87.9432 130 61 78
-22.7697 -26.854 87.9585 133 45 69
-24.2734 -22.1356 86.5477 134 135 167
-23.8391 -23.4512 83.8535 144 139 165
-23.832 -23.4596 82.9503 141 142 163
-22.7307 -26.9004 82.9911 132 43 65
-15.5682 -29.1998 82.8749 136 41 68
-12.4681 -26.586 81.3753 133 43 64
-23.6625 -23.9277 78.8912 149 140 162
-23.5177 -24.3662 77.9931 147 139 161
-23.8988 -23.1139 73.9136 149 148 173
-23.7505 -23.5566 72.564 148 147 167
-23.1999 -25.277 72.5844 143 79 88
-22.3739 -27.8575 72.615 137 44 60
-23.7434 -23.565 71.6608 154 144 164
-23.5916 -24.012 69.8596 154 141 152
-22.4903 -27.4527 69.9004 127 33 63
-23.7222 -23.5903 68.9514 150 147 158
-23.4468 -24.4505 68.9616 139 114 123
-22.4832 -27.4611 68.9972 130 34 65
-23.4362 -24.4632 67.6068 130 117 123
-23.4291 -24.4716 66.7037 131 118 120
-23.5526 -24.0584 64.8923 149 138 153
-23.6832 -23.6367 63.984 155 147 158
-24.3609 -21.4989 62.6038 147 146 172
-24.3538 -21.5073 61.7006 149 145 174
-23.8031 -23.2277 61.721 151 152 170
-23.5278 -24.0879 61.7312 146 139 140
-23.796 -23.2361 60.8178 149 148 170
-23.7889 -23.2446 59.9147 149 149 166
-19.349 -30.3272 58.9508 103 73 76
-23.3653 -24.5475 58.5752 128 112 118
-19.7454 -29.482 58.496 99 86 86
-20.3995 -28.2243 57.5921 87 87 87
-19.6077 -29.4847 56.6736 123 81 85
-19.477 -29.479 55.7573 120 77 81
-20.1096 -28.6753 53.9627 113 106 110
-19.5863 -29.5101 53.9532 136 96 101
-23.7181 -23.3289 50.8831 150 143 161
-23.8486 -22.9072 49.9748 143 98 129
-23.5733 -23.7674 49.985 152 133 147
-19.8455 -28.2382 49.8465 146 115 109
-18.5641 -29.4344 49.7857 151 98 96
-19.8384 -28.2467 48.9395 130 90 99
-18.681 -29.4571 48.8883 136 89 99
-23.7003 -23.35 48.6252 126 40 82
-18.5354 -29.8981 47.9851 109 68 76
-18.6632 -29.4783 46.6176 102 43 67
-29.1279 21.9016 44.557 71 25 47
-22.8531 -25.9558 45.9463 106 45 63
-29.665 19.9079 43.7715 72 22 52
-22.9801 -25.5384 44.5865 137 101 110
-28.286 20.1621 39.9596 79 24 53
-22.4011 -27.2924 40.9942 78 26 64
-28.2234 22.0373 38.9521 78 23 53
14.5233 -29.5413 36.9142 146 84 71
14.5309 -29.5503 35.9505 141 84 69
14.5385 -29.5593 34.9868 139 86 65
14.5428 -29.0987 33.5201 140 82 68
-18.5779 29.837 33.8748 36 29 30
14.8372 -29.5516 32.5457 139 86 70
14.8308 -28.6116 31.5383 149 78 71
14.9824 -28.6098 30.0747 147 84 69
-20.3272 -28.4714 32.688 144 67 52
16.2589 -28.0178 27.4852 143 83 71
-23.3925 -23.9824 26.9545 120 33 72
-23.5196 -23.565 25.5946 122 26 70
-23.6289 -23.1686 21.9769 51 33 44
-22.6404 -26.2087 18.8515 103 55 73
-23.7346 -22.7765 17.9076 122 30 72
-22.4957 -26.6473 17.9535 118 60 77
-30.1092 20.9033 15.8465 65 29 61
-29.2964 22.4708 14.7216 62 27 53
-23.8617 -22.359 16.5478 112 26 65
-29.0436 22.5159 13.7643 52 32 47
-29.1691 22.9361 11.9221 41 30 40
-23.6957 -22.8228 12.9402 103 24 63
-23.3998 -20.5507 11.8535 97 27 66
-30.1847 20.8213 9.91377 80 25 63
-30.7418 12.8218 10.4901 44 42 55
-30.5857 11.9306 10.5206 83 81 92
-24.3733 -20.685 11.56 96 26 66
-30.7695 13.7295 9.52845 58 52 65
-30.4745 12.4039 9.56434 61 55 62
-30.6826 11.4406 9.65639 90 77 82
-30.3706 9.66056 9.71774 54 45 66
-24.3662 -20.6935 10.6568 93 27 68
-30.6793 14.667 9.00093 91 82 94
-30.3804 13.3361 8.58132 44 41 49
-30.2243 12.4439 8.61231 56 53 56
-30.7962 8.19064 8.96779 48 41 46
-30.6405 7.30305 8.99857 43 39 36
-24.3592 -20.7019 9.75369 94 27 66
-30.3906 13.7861 7.64393 61 53 70
-30.0955 12.4596 7.68029 55 53 63
-24.3521 -20.7103 8.85053 89 28 65
-23.8014 -22.4307 8.87091 93 27 63
-29.8286 18.5338 6.7985 94 77 103
-30.3182 8.72661 7.49643 43 34 45
-30.2106 9.20205 6.99476 46 37 47
-23.7943 -22.4391 7.96775 97 27 66
-23.2437 -24.1595 7.98813 99 37 54
-29.9955 19.8847 5.8251 79 28 67
-29.8723 13.4084 5.76186 44 37 56
-29.716 12.5154 5.79355 52 46 57
-29.4818 19.5183 4.84973 76 33 65
-23.7837 -22.4518 6.61302 95 28 68
-28.8344 15.4623 4.54713 104 97 104
-29.6213 13.4489 4.80643 45 39 52
-28.6538 17.354 3.93755 103 98 123
-28.6197 16.4307 3.99173 103 100 124
-29.5168 7.47166 4.72029 37 40 38
-23.7766 -22.4602 5.70986 95 26 65
-28.5822 15.5039 3.58814 107 101 115
-29.2847 11.1955 3.98506 78 73 96
-29.1958 8.90276 3.66429 58 56 55
-29.1617 7.98888 3.71828 53 54 48
-29.3199 5.66279 3.89659 48 48 73
-29.4965 0.602266 4.25655 61 55 62
-23.7695 -22.4686 4.8067 94 30 65
-28.9394 18.6761 2.52529 86 63 89
-28.575 15.4954 2.67269 101 97 113
-29.3549 0.166623 3.80869 64 60 68
-29.03 11.2307 2.57281 59 49 78
-29.6819 -3.98319 3.68442 81 74 85
-28.4452 15.5119 1.73482 92 77 99
-28.7108 12.6759 1.96731 64 54 76
-29.0321 4.78437 2.54344 80 72 84
-29.2266 0.179386 2.88082 68 67 70
-28.9578 6.16943 1.98471 64 52 73
-29.1723 -1.18207 2.50918 67 59 68
-29.8125 -3.56153 2.77617 69 67 75
-29.0647 19.0955 0.687045 65 28 61
-28.3493 16.4514 0.740779 65 31 57
-28.4381 15.5033 0.81916 69 35 63
-28.5098 14.0962 0.925208 71 38 67
-28.4759 13.1759 0.98074 66 36 62
-28.8695 3.88805 1.66706 66 53 66
-29.0983 0.19213 1.95253 67 59 76
-29.5301 -4.43015 1.8832 80 68 85
-26.5015 -13.8921 1.9953 98 30 70
-28.5816 6.22489 0.552261 64 28 58
-28.4429 5.79134 0.557398 65 30 59
-28.6359 4.37911 0.68564 68 34 57
-28.7947 2.06176 0.868761 80 48 74
-28.9833 0.653722 0.542867 73 34 62
-29.6607 -4.00849 0.974943 82 47 67
-5.59962 -29.8301 131.2 120 101 100
-7.5034 -29.4602 130.175 132 156 101
-5.46954 -29.8001 130.285 132 100 90
-6.97869 -28.8376 129.757 137 171 120
-7.25131 -29.3937 129.27 121 142 99
-5.71026 -29.8795 129.347 121 107 90
-6.969 -28.8473 128.375 138 167 108
-7.12198 -29.3637 128.357 126 150 92
-5.70379 -29.886 128.425 107 129 77
-6.96577 -28.8506 127.914 137 167 108
-7.11552 -29.3702 127.436 123 154 86
-5.82079 -29.9289 127.495 116 147 78
-6.27736 -29.6011 126.554 112 145 84
-7.8072 -29.7933 103.487 122 122 131
-11.5768 -29.0586 101.61 139 130 150
-11.4769 -29.5047 100.699 143 157 166
-10.806 -30.2397 100.709 138 160 145
-12.1681 -29.2526 99.7793 132 134 159
-0.961457 -29.3393 87.2917 155 173 180
-15.2112 -28.4249 86.5762 140 60 79
-15.3241 -28.4675 85.6703 139 61 78
-15.3178 -28.4739 84.7618 141 60 82
-14.6525 -29.2042 84.7643 129 87 120
-14.4329 -29.6119 83.8596 145 134 155
-15.6375 -28.1218 82.944 149 62 91
-1.74168 -28.6617 82.6433 170 185 189
-15.9791 -28.2465 80.6853 146 58 93
-20.5801 -25.0218 79.8237 130 42 67
-15.7344 -28.1804 79.7691 138 69 89
-0.0246583 -29.1366 79.3545 183 162 156
-21.2094 -23.8317 78.9076 137 106 129
-20.7857 -24.6293 78.9162 137 109 129
-20.3619 -25.427 78.9248 138 112 117
-19.3026 -27.421 78.9463 102 92 70
-15.3957 -28.5516 78.8609 113 115 78
-3.30564 -28.6876 78.5077 174 182 186
-2.58553 -28.9529 78.0296 181 173 174
-20.3524 -25.4365 77.57 155 132 120
-19.2931 -27.4305 77.5915 87 90 75
-3.79424 -28.8448 77.1372 176 177 186
-21.4054 -23.4488 76.6454 153 82 96
-20.3461 -25.4428 76.6668 131 63 67
-19.2868 -27.4369 76.6883 70 71 63
-13.8503 -28.5707 76.5391 94 91 79
-21.3991 -23.4551 75.7422 134 52 71
-20.3398 -25.4492 75.7637 134 47 63
-13.3367 -27.9565 75.5925 123 50 70
-21.6046 -23.0627 74.8347 133 47 68
-20.3335 -25.4556 74.8605 131 46 65
-20.1153 -25.8607 73.9616 125 38 64
-12.7582 -26.3961 73.2412 139 41 86
-11.7795 -27.9741 73.2528 106 56 73
8.70374 -27.1215 72.4309 128 66 75
7.84673 -28.3354 72.5023 103 69 97
-12.4198 -26.7661 72.7825 138 40 79
-11.7763 -27.9774 72.7956 104 57 68
-6.88761 -28.3892 72.6151 130 145 139
-12.6279 -26.3688 71.8638 132 36 77
-11.7699 -27.9838 71.8812 101 58 64
-20.3113 -25.4778 71.6993 123 29 67
8.97786 -27.0587 70.5237 124 63 70
-12.1652 -26.7053 70.941 126 36 67
-11.7361 -27.5131 70.9497 115 46 59
-6.78162 -28.8457 70.7827 144 149 157
-20.9406 -24.2877 70.7833 130 33 73
-20.305 -25.4841 70.7962 128 30 68
-20.2986 -25.4905 69.893 130 31 67
-11.8749 -28.0364 69.602 95 57 54
-8.15703 -27.8561 69.4283 86 99 86
-6.73861 -28.3783 68.9217 126 140 132
-20.716 -24.6992 68.9812 131 37 70
-20.2923 -25.4969 68.9898 125 27 65
-7.65969 -27.7152 68.4802 84 98 82
-6.95162 -27.9745 68.4564 104 123 115
-14.1413 -26.3971 68.2793 142 47 76
-20.2828 -25.5064 67.635 130 42 69
-14.038 -26.8461 66.923 133 41 72
-13.129 -27.5051 66.9023 115 37 61
-20.2765 -25.5127 66.7318 128 46 74
8.61759 -30.5853 64.9926 143 157 161
-20.2702 -25.5191 65.8287 120 33 72
-20.2638 -25.5255 64.9255 112 25 59
-15.0004 -27.6365 63.8168 114 32 56
-8.6984 -27.6025 63.4682 70 80 47
-20.2543 -25.535 63.5707 129 49 83
-16.6128 -27.2051 62.9811 113 23 58
-7.49488 -27.7204 62.4855 76 96 60
-20.248 -25.5413 62.6675 130 40 75
-15.588 -27.8281 62.4942 110 25 51
-14.8971 -28.0841 62.4651 103 31 48
-8.07603 -27.4278 62.0462 84 89 52
-7.36546 -27.69 61.5556 84 101 52
-6.78003 -27.9863 61.5339 91 112 63
-20.2417 -25.5477 61.7643 121 26 63
-8.53065 -27.1018 61.1389 87 64 46
-13.2078 -27.5834 60.9789 111 35 52
-7.35901 -27.6965 60.6342 82 99 50
-20.2354 -25.5541 60.8612 124 29 60
-12.8701 -27.953 60.5182 93 56 43
-20.229 -25.5604 59.958 108 53 74
-7.22635 -27.6693 59.2428 82 99 48
-21.2788 -23.5759 58.5818 88 82 85
-20.2195 -25.5699 58.6032 116 97 107
-20.2132 -25.5763 57.7 132 92 105
-13.7306 -26.84 57.3302 114 38 62
-15.2759 -27.329 55.6361 99 24 65
-20.6179 -24.7977 54.9819 116 103 112
-20.1942 -25.5954 54.9905 128 89 98
-15.7439 -27.4845 54.3132 83 34 57
-16.6431 -26.8317 53.8918 92 33 66
-15.7407 -27.4877 53.8589 81 38 56
-16.7557 -26.8747 52.9948 87 43 63
-20.5895 -24.8263 50.9176 145 116 122
-20.1657 -25.624 50.9262 149 95 106
-20.7855 -24.4434 48.6553 122 91 103
-20.7792 -24.4498 47.7522 110 69 82
15.5421 -26.3494 44.8402 155 140 116
-20.7729 -24.4561 46.849 99 33 63
-20.7665 -24.4625 45.9458 90 27 65
-20.1309 -25.6589 45.9587 77 29 65
16.5351 -25.5898 42.7961 137 117 96
16.0937 -26.2113 42.3899 162 147 122
16.0543 -26.7154 41.9429 167 148 119
-20.757 -24.472 44.591 72 27 64
16.1948 -26.6835 40.9703 169 147 117
-20.7507 -24.4784 43.6878 67 25 62
-20.7444 -24.4847 42.7847 69 26 63
-20.738 -24.4911 41.8815 67 25 59
-21.5792 -22.9022 40.9611 81 25 66
-21.1554 -23.6998 40.9697 75 24 62
-20.7317 -24.4974 40.9783 70 26 62
-20.0961 -25.6939 40.9912 58 25 54
-20.7222 -24.507 39.6235 68 27 58
-20.7159 -24.5133 38.7203 73 25 58
-20.2922 -25.3109 38.7289 68 26 58
-13.3023 -25.9475 38.0802 89 78 70
-20.7096 -24.5197 37.8172 74 26 57
-21.127 -23.7284 36.9054 80 27 60
-20.9151 -24.1272 36.9097 80 27 61
-14.3455 -25.8163 36.3512 112 100 99
-17.039 -25.7171 36.1648 99 82 84
-15.5145 -25.7128 36.0083 113 93 88
-21.5444 -22.9371 35.9936 84 45 69
-14.4592 -25.8597 35.454 130 82 70
-21.3293 -23.3391 35.5463 89 50 61
-20.6937 -24.5356 35.5592 106 55 67
-15.7471 -25.793 35.1278 134 60 70
-20.6874 -24.5419 34.656 130 27 61
-14.5695 -25.9062 34.1015 132 41 50
-20.6811 -24.5483 33.7528 128 42 53
-14.6571 -25.4731 33.1703 144 69 55
-14.0797 -25.768 32.6723 148 77 59
-20.6748 -24.5546 32.8497 138 61 57
-14.4075 -25.4086 31.7713 129 63 45
-21.0922 -23.7634 31.9379 135 65 58
-20.6684 -24.561 31.9465 128 61 52
-14.8323 -24.6062 31.3065 124 60 47
-14.3749 -24.9378 30.8229 141 68 50
-14.1577 -25.344 30.3709 150 75 47
-13.8233 -25.71 30.3592 151 78 52
-14.3685 -24.9443 29.9103 150 79 52
-13.9372 -25.7534 29.4626 148 81 59
16.8781 -26.132 25.9983 163 149 112
-21.0573 -23.7983 26.9704 127 72 80
-20.6336 -24.5959 26.979 125 72 77
-14.2975 -24.5116 23.4822 133 89 77
-13.1162 -24.6195 22.8874 138 98 82
-9.88489 -26.4522 22.6268 135 47 57
-14.0242 -23.965 22.4931 130 86 78
-12.9923 -24.5853 22.412 143 101 85
-21.0289 -23.8269 22.9061 120 81 74
-12.6536 -24.9553 21.9408 152 102 88
-10.581 -26.2017 21.7769 128 45 49
-13.683 -24.3376 21.5653 129 84 79
19.4083 -26.4558 17.5451 172 156 106
-10.1158 -26.5392 20.827 133 47 49
-13.1002 -24.6356 20.6004 153 107 83
-9.89404 -26.9509 19.9135 122 55 49
-12.6375 -24.9714 19.6526 150 91 72
-14.0282 -24.4658 19.336 143 99 79
-13.0906 -24.6453 19.2282 143 94 70
-19.7362 -23.9143 19.5836 95 45 56
-12.5102 -24.9405 18.7185 151 94 74
-13.8075 -24.8756 18.4268 148 95 74
-6.24768 -24.9311 15.5844 117 62 44
22.2213 -23.7284 10.6716 168 151 109
21.3997 -25.4476 10.927 174 150 108
21.1795 -25.0271 9.9548 170 157 105
-7.25302 -23.8357 13.3194 117 50 55
21.7336 -23.3935 8.77135 158 145 103
-6.40843 -24.0642 11.8335 97 45 51
-6.74595 -23.6968 11.3871 112 47 56
-5.9403 -24.4004 11.3334 87 49 54
-6.15429 -23.9948 10.8659 91 43 45
-5.34754 -24.6991 10.8118 83 42 44
-5.21685 -24.6678 9.86378 98 37 48
-14.49 -23.2791 10.624 129 65 49
-13.5795 -23.9361 10.5496 134 66 57
-6.48559 -23.6337 9.49372 102 43 52
-4.62306 -24.967 9.3406 112 40 54
-26.5662 11.465 8.86268 57 55 54
-4.24614 -24.8567 8.81226 117 46 56
21.5333 -22.9925 4.88736 163 150 105
-5.05176 -24.1543 8.40415 105 43 52
-26.441 11.505 7.91744 56 53 59
-6.84689 -23.7576 8.16981 100 40 54
-25.8791 10.7256 6.51847 45 43 59
-9.08796 -23.0381 7.05325 110 42 53
2.05714 -23.462 3.54494 91 71 48
-7.58017 -20.711 1.52355 97 44 53
-5.80865 -21.5944 0.862882 70 45 42
-7.69725 -20.7563 0.620491 64 46 43
15.4336 -26.4778 137.987 135 145 152
15.2387 -25.562 134.692 183 164 184
15.737 -26.8657 134.673 180 181 205
15.6979 -26.3761 133.74 171 169 178
-7.37857 -30.0097 130.531 130 91 151
-7.37458 -30.0131 129.619 133 70 126
0.485801 -29.1671 129.118 136 55 120
11.5729 -28.3741 129.215 161 160 184
-3.52517 -30.1316 127.516 116 132 100
-5.2212 -29.9664 126.984 112 146 110
11.0552 -28.1259 126.848 152 170 174
-5.03539 -29.388 124.719 117 150 109
-7.56853 -29.1428 124.161 112 143 96
10.4608 -28.4218 124.936 156 171 195
8.88674 -27.6566 123.951 172 196 241
-2.64494 -30.2392 121.125 128 158 120
-3.83573 -30.3266 120.162 125 160 108
-3.09709 -30.4682 119.727 131 163 119
-3.43412 -30.6409 118.337 139 171 131
-3.31778 -30.5867 117.883 139 167 144
1.52809 -29.2468 114.824 158 185 189
-0.773206 -29.3649 114.299 133 162 129
0.836123 -29.5916 113.415 143 172 138
1.3727 -28.8319 112.512 133 155 111
1.53821 -29.2554 112.511 137 163 127
0.84421 -29.5984 111.567 131 163 127
0.102653 -29.4619 110.629 129 151 98
-7.38579 -29.146 108.191 122 116 115
-5.53157 -29.7292 108.22 125 140 103
-0.234679 -29.6398 108.314 129 150 108
-6.37496 -29.648 107.749 119 118 114
-5.6411 -29.7885 107.303 127 119 119
-5.86389 -29.9037 106.385 127 105 128
0.750281 -29.6738 106.484 130 125 114
-5.85989 -29.9071 105.471 130 119 129
0.408205 -29.8482 105.093 97 89 91
-8.26682 -29.6097 103.617 105 106 101
-0.840336 -29.4624 103.235 101 77 105
-8.42814 -29.1961 102.704 107 104 125
-7.64748 -29.8072 102.711 119 132 126
-0.672921 -29.8857 102.776 120 121 139
-9.15286 -29.06 102.242 114 126 135
-8.14639 -29.5607 101.795 124 149 135
-9.70886 -29.3422 101.328 134 157 158
-7.75409 -29.8679 101.343 107 137 120
-2.26472 -29.6676 101.382 121 151 114
-1.52426 -29.8072 101.387 111 139 111
-0.782377 -29.9471 101.393 104 134 117
-8.02993 -29.5083 100.885 111 137 126
-7.80278 -29.3984 100.43 108 137 123
-5.88984 -29.4515 100.441 105 138 116
-2.9997 -29.5316 100.458 110 145 109
-1.63534 -29.8669 100.467 112 144 119
-1.07448 -30.5963 100.472 110 143 133
-7.18451 -29.5942 99.9776 105 139 123
-8.07676 -29.0403 99.5153 120 145 140
-5.99915 -29.5108 99.5261 109 140 126
-1.90974 -29.5073 99.0838 116 145 131
-1.23368 -30.1806 99.0891 122 150 150
-0.820167 -29.4795 98.6268 121 151 140
-5.60107 -29.8225 98.157 121 145 135
-6.44417 -29.7412 97.6979 121 147 137
-0.188256 -29.6791 97.7073 132 160 164
-5.59706 -29.8259 97.2424 124 152 137
-6.32697 -29.6887 96.784 123 152 138
-1.7343 -29.9367 96.7865 134 161 161
-5.02493 -29.5494 96.3254 129 155 152
-3.83359 -29.464 96.3241 132 157 154
-2.63759 -29.3782 96.3228 134 159 154
-2.12568 -29.6318 95.8646 137 157 165
-5.86782 -29.4701 95.4106 138 145 154
-3.60089 -29.355 95.4052 132 131 151
2.2938 -29.9958 95.3994 140 122 126
-2.00662 -29.5789 94.9441 137 147 173
0.800813 -29.7166 94.938 149 147 166
2.69467 -30.308 94.9384 102 88 111
-4.4475 -29.2758 94.4893 113 89 137
-3.59687 -29.3584 94.4873 103 84 133
-5.52128 -29.3071 94.0356 120 94 119
1.78461 -29.7473 94.0107 150 134 174
-2.23052 -29.6966 93.5666 147 145 182
0.69075 -29.7782 93.5537 142 142 198
-4.3274 -29.2246 93.1129 96 76 114
-3.70517 -29.4197 93.1117 100 91 119
-1.7182 -29.9503 93.1069 125 127 153
-5.17224 -29.1456 92.2006 135 115 148
-4.32339 -29.2281 92.1959 109 91 127
-3.70115 -29.4231 92.194 120 103 138
-4.09314 -29.1174 91.7342 110 92 130
11.5338 -26.084 86.8656 161 173 178
11.3408 -26.6946 85.9379 168 184 181
-10.6421 -28.9018 85.8748 158 168 216
10.6975 -26.5017 84.5331 175 187 196
9.16528 -26.2264 83.6159 178 191 198
-12.4047 -26.8057 83.5916 131 88 132
-11.7378 -27.4714 83.1389 150 154 190
-12.5086 -24.8588 82.6396 142 48 80
-12.2331 -26.2236 82.6659 134 65 116
-11.6226 -27.4187 82.2266 150 156 201
-11.5092 -27.3643 81.7683 151 159 202
-0.647998 -26.975 81.5108 179 190 231
-12.5026 -24.8638 81.2742 139 48 77
-11.7248 -25.4721 81.2712 140 54 99
-12.1706 -26.7034 80.8583 131 92 138
-11.3938 -27.3115 80.8551 147 158 178
-11.8323 -25.5322 80.3648 140 54 99
7.81096 -28.9388 79.9647 156 169 167
-12.1666 -26.7067 79.9495 127 92 121
-11.3899 -27.3149 79.9459 126 141 144
-11.2724 -27.2638 78.5774 113 137 141
1.52256 -28.9589 78.2711 142 77 109
-12.0474 -26.6572 78.1272 101 105 106
-4.18674 -27.738 77.9352 179 187 220
-11.1569 -27.2109 77.6631 106 136 132
-7.52263 -27.8927 77.5774 173 189 219
-12.0434 -26.6606 77.2182 93 110 103
-10.7641 -27.5187 76.7509 127 152 161
-7.17957 -27.727 76.648 175 184 215
-3.78622 -28.0507 76.5544 187 180 202
-2.42253 -28.3836 76.523 169 124 164
-0.145032 -29.2792 76.4809 155 90 119
-11.3136 -25.7951 76.2596 86 101 91
-12.0394 -26.6639 76.3092 88 104 97
-8.52452 -27.399 76.2224 166 183 212
-7.17557 -27.7304 75.7334 170 182 211
-0.603745 -29.5085 75.58 158 91 110
-11.5329 -25.9116 75.3596 99 83 88
-12.0355 -26.6673 75.4002 93 97 96
-9.36082 -27.3224 75.3342 149 171 190
-3.78018 -28.0558 75.1759 182 156 188
-2.3015 -28.3321 75.1366 150 87 122
-11.4222 -26.8605 74.9317 101 111 102
-7.39763 -27.8465 74.8299 167 179 209
-3.1543 -28.2522 74.702 163 109 152
-10.2489 -26.7722 74.4341 100 126 117
-2.18239 -28.2789 74.21 142 78 127
-7.28058 -27.7935 73.9099 165 179 205
-3.03548 -28.1989 73.7764 152 93 123
-10.7427 -25.5217 73.4973 111 60 83
-10.2449 -26.7756 73.5227 99 127 120
-2.17836 -28.2823 73.2891 143 70 96
-3.37549 -28.3721 72.8749 147 82 95
-8.0048 -27.6618 72.5603 160 169 195
-2.63425 -28.5121 72.393 143 73 90
-10.5127 -25.4132 72.1169 102 54 61
-3.48601 -28.432 71.962 141 73 105
-2.23686 -28.8221 71.9292 150 81 106
5.26183 -26.6673 71.571 126 63 71
-8.50453 -27.4159 71.657 148 166 178
-10.5087 -25.4166 71.2044 99 53 61
-6.42359 -27.8844 71.1369 171 164 186
-10.3407 -25.8367 70.7573 89 77 66
-8.16247 -27.25 70.7241 148 161 178
-7.60548 -27.9744 70.7293 163 163 187
-6.30618 -27.8314 70.2147 169 162 183
-4.49533 -27.9367 70.1458 157 112 123
4.6337 -29.0119 69.8193 115 90 116
-7.65425 -27.5028 69.7994 152 163 177
-11.0095 -27.1851 69.4696 80 107 76
-2.96457 -28.6936 69.1936 134 55 59
-2.45261 -28.9469 68.7222 136 65 59
-7.97984 -26.67 68.4087 123 143 135
-11.2266 -27.3025 68.1191 77 105 70
-7.42031 -27.3967 67.9565 150 156 168
-7.86286 -26.6167 67.4867 121 141 131
-11.6682 -27.5304 67.2392 77 103 67
-9.04115 -26.709 67.0863 93 120 96
-15.258 -27.8516 66.963 86 54 45
-14.7075 -28.5676 66.968 76 91 51
-7.52725 -27.4582 66.5921 144 154 154
1.1767 -28.6935 66.2456 96 42 41
-9.14962 -26.7689 66.1809 90 114 93
-8.19551 -26.7917 66.1375 110 131 124
1.29519 -28.6384 65.7752 109 52 36
-7.63625 -27.5181 65.6855 141 150 156
-15.5274 -27.4986 65.6056 89 40 52
-8.8081 -26.6026 65.2444 92 116 96
1.18277 -28.6987 64.8578 133 57 52
-8.07664 -26.7401 64.7582 105 127 123
-7.29319 -27.3521 64.7473 140 149 155
-15.5234 -27.502 64.7024 79 40 47
1.30329 -28.6453 63.9243 132 61 56
-8.35134 -26.3811 63.8412 86 109 89
-7.45492 -26.9362 63.8217 124 139 151
-7.06286 -27.2424 63.816 139 142 138
-6.50494 -27.968 63.8212 120 116 99
-17.7218 -24.6413 63.7789 126 40 72
-7.22462 -26.8263 62.8897 118 135 144
-6.83231 -27.1326 62.8838 135 140 132
10.1934 -26.8765 61.997 144 150 161
-8.51134 -25.967 62.4585 73 96 63
-8.23258 -26.3295 62.4611 86 111 88
-7.22061 -26.8297 61.9742 120 132 141
2.59816 -28.027 61.513 124 36 62
-17.7138 -24.648 61.9725 113 27 65
-17.1633 -25.364 61.9776 114 26 62
-15.5116 -27.512 61.9928 85 41 41
-8.39249 -25.9152 61.0777 78 101 59
-8.11366 -26.2778 61.0803 87 110 76
-8.11166 -26.2795 60.6228 87 109 69
-5.5824 -27.528 60.5456 91 89 70
-6.36659 -26.9162 60.1002 110 117 84
-8.05463 -26.7588 59.729 92 114 66
-15.5055 -25.5262 59.6335 120 31 61
-9.73475 -26.6021 59.3595 87 107 56
-6.58956 -27.033 59.2023 97 106 68
-5.46258 -27.4765 59.1607 56 68 44
-9.45472 -26.9654 58.906 89 108 55
-7.88487 -27.1811 58.8266 95 107 62
-6.30833 -27.3978 58.7468 63 74 45
-15.5015 -25.5296 58.7282 116 81 80
-13.8459 -26.6846 58.6916 100 78 65
-8.83744 -27.1595 58.424 94 109 53
-5.79983 -27.6496 58.2722 44 58 42
13.5661 -24.7614 56.992 134 123 144
14.4317 -25.887 57 140 152 155
-9.56295 -27.0252 58.0033 84 107 41
-8.44459 -27.4667 57.9605 89 108 56
-17.1455 -25.3791 57.9131 136 68 84
-15.6075 -25.5893 57.8324 133 69 83
-14.9457 -26.2506 57.8279 136 87 97
-7.14799 -27.3227 57.4188 88 97 60
-6.41572 -27.4594 57.3823 63 67 47
-5.34071 -27.4267 57.3164 49 50 42
-9.94907 -26.7236 57.0986 77 92 35
-9.67116 -27.085 57.1011 82 99 41
-9.55696 -27.0303 56.6353 80 95 46
-8.55121 -27.5281 56.6007 85 96 59
-7.48323 -27.4955 56.5337 73 79 55
-6.63851 -27.5759 56.4864 48 50 39
-5.56434 -27.5433 56.419 39 44 43
-9.83293 -26.6705 56.1768 76 83 37
-12.34 -27.4368 55.9198 81 77 35
-8.65978 -27.5878 55.698 96 99 67
-9.82894 -26.6738 55.2647 78 75 36
-6.4057 -27.4679 55.0925 63 47 34
10.9827 -25.5179 53.8844 66 81 93
-9.43676 -26.9806 54.8009 88 65 37
-8.93394 -27.2295 54.7828 97 64 43
11.393 -25.8345 53.4049 101 121 137
-12.7216 -27.1381 54.5661 92 69 41
-7.24715 -27.3911 54.2267 116 49 46
-9.7108 -26.6224 53.8862 98 41 36
-8.92995 -27.2329 53.8701 113 39 41
-7.46922 -27.5074 53.3333 123 44 50
-1.36589 -25.9836 52.38 123 50 58
9.40787 -24.7592 51.5897 73 33 65
-17.1237 -25.3975 52.9455 81 35 66
-1.01645 -25.8129 51.8841 123 44 51
9.65297 -24.6451 50.6255 72 28 50
-2.78214 -25.1775 51.0424 124 37 46
-1.06265 -25.3344 50.9335 126 37 47
16.0591 -25.1463 49.7441 140 148 129
-16.292 -26.4765 51.5983 67 33 42
-0.546359 -25.5879 50.4501 124 39 47
-0.428179 -25.5319 49.9754 123 37 44
-16.288 -26.4799 50.695 67 35 44
-0.0732614 -25.364 48.5499 123 36 41
0.163596 -25.2519 47.5983 122 35 39
0.0532552 -25.3148 46.2198 125 36 39
-9.7354 -27.1819 46.172 126 36 49
-0.291697 -25.4915 45.331 126 33 49
2.60012 -26.1045 43.2889 127 39 49
2.31874 -25.7376 42.8213 124 36 44
-17.6348 -24.715 43.9083 63 44 59
1.51972 -25.1181 42.3783 126 38 45
-17.3575 -25.0746 43.4592 77 71 70
1.97119 -25.9144 41.9324 124 38 44
-7.51103 -25.5931 40.3971 132 41 44
-6.15547 -25.9227 39.8463 135 42 47
-13.6517 -25.6984 39.5685 109 63 60
-5.69602 -25.6977 38.8715 139 43 54
16.4851 -25.0161 36.8774 168 162 115
-6.02628 -24.8564 38.3782 134 39 53
-4.84305 -25.778 38.3428 137 42 48
-14.201 -24.9823 38.6557 101 81 76
-4.38338 -25.5507 37.8248 137 41 50
16.6556 -25.4555 35.9451 179 166 124
-5.10888 -24.4 37.3421 128 29 50
-4.20369 -24.9577 37.3033 132 33 54
-14.1971 -24.9856 37.748 90 76 71
-13.6438 -25.7052 37.7531 100 49 53
-4.82617 -24.7667 36.8842 125 28 51
-16.4024 -24.1165 37.4281 86 69 78
-3.85533 -24.7885 36.337 127 28 52
-1.80611 -25.7938 35.7658 127 34 48
15.0852 -22.0896 33.9277 92 53 55
-13.9697 -25.8794 36.4355 113 56 60
-3.67283 -24.1955 35.3515 129 32 51
-3.38943 -24.5631 34.8925 129 32 51
-1.10764 -25.4521 34.7498 125 32 49
-3.09302 -23.9097 34.3513 134 33 52
-2.93981 -25.3542 34.4514 128 30 50
-2.9868 -24.8766 33.4947 130 32 51
-1.6152 -25.2058 33.3904 129 33 48
-13.9598 -25.8878 34.1679 123 31 51
10.6563 -23.7516 31.6327 79 41 53
-17.5913 -24.7518 33.973 133 31 62
-17.314 -25.1115 33.5239 131 34 52
-13.7346 -25.7784 33.23 125 33 56
-13.5092 -25.6689 32.2913 127 35 50
-16.9757 -23.9546 30.2293 129 64 42
-15.7087 -24.8046 30.1726 146 73 50
-15.9808 -24.449 29.2643 146 78 54
-15.9788 -24.4507 28.8114 148 80 55
-16.9148 -23.4322 28.3675 147 77 62
-14.8191 -24.3582 28.2287 145 76 59
-14.0982 -24.4927 27.7107 137 79 69
-11.6012 -25.728 27.5559 121 34 50
4.11004 -24.4427 25.7813 119 33 50
