ply
format ascii 1.0
element vertex 1359
property float x
property float y
property float z
property uchar red
property uchar green
property uchar blue
end_header
34.2978 16.576 57.6335 47 39 52
33.2707 17.4596 57.632 33 24 51
32.2437 18.3433 57.6306 35 26 54
24.0274 25.4122 57.6189 70 56 64
23.0004 26.2959 57.6174 69 58 78
22.658 26.5904 57.6169 71 65 82
19.0811 26.4617 57.4136 119 107 96
17.9233 26.6515 57.3621 138 119 108
12.2097 26.5254 57.0423 55 50 90
10.2028 26.6098 56.9379 85 116 139
9.11879 26.8832 56.8956 104 135 158
-0.380289 26.7087 56.366 73 44 65
-1.64149 26.2698 56.2699 70 40 65
-4.42575 26.964 56.1608 70 51 66
-13.3668 26.8978 55.6684 55 45 49
-17.4303 27.242 55.4677 45 31 42
-19.3307 26.937 55.3451 46 33 41
-19.368 27.4992 55.3778 47 34 40
-20.9163 26.8836 55.2552 49 35 37
-22.7261 26.6609 55.1426 53 43 46
-24.469 27.0882 55.0738 71 50 51
-29.8327 25.93 54.7092 73 37 49
34.2161 -25.5559 54.5444 30 25 48
35.6608 -7.35404 55.7616 36 35 55
35.0457 -6.65434 55.7714 43 38 63
34.0771 -5.65073 55.7806 41 33 53
33.6482 -4.77124 55.8119 47 41 55
34.7476 -0.485498 56.1404 54 53 56
35.1975 6.91169 56.6276 63 63 83
35.005 9.85011 56.8006 101 96 114
35.1581 12.4689 56.9727 101 98 115
20.8889 26.8341 57.0829 76 65 71
18.2682 26.3551 56.9083 117 87 88
17.3911 26.7868 56.8869 130 111 108
3.91914 27.8758 56.2114 100 104 108
1.67581 27.8008 56.0829 70 41 60
-3.61534 26.4377 55.7057 63 44 57
-4.07123 26.6594 55.6944 71 52 63
-7.78408 27.8016 55.5609 55 43 51
-11.3051 26.1688 55.2645 50 35 49
-12.5453 26.3656 55.2084 50 36 52
-23.8868 26.9456 54.6187 69 53 57
-26.184 26.9499 54.4922 70 38 47
-30.9827 25.6445 54.1457 78 41 50
-31.4613 25.8738 54.1337 87 46 53
-31.8275 26.1888 54.1331 99 52 59
-32.1937 26.5039 54.1326 99 48 67
33.9307 -25.8504 54.0301 30 27 49
34.7482 -0.485576 55.6777 44 42 53
34.9047 2.21569 55.8571 52 49 77
35.3259 15.6922 56.7317 102 99 120
34.2989 16.5759 56.7303 60 46 67
33.2719 17.4595 56.7288 35 25 56
32.2448 18.3431 56.7273 34 24 53
24.0286 25.4121 56.7157 72 62 84
23.0015 26.2957 56.7142 42 38 86
20.1738 26.8085 56.5889 75 64 85
16.7639 26.8417 56.4008 132 109 112
12.1147 26.444 56.1165 50 45 98
11.4787 26.4992 56.0845 46 48 94
9.02271 26.8017 55.9666 104 127 155
4.66467 27.9007 55.793 106 121 124
-6.55882 27.6044 55.1485 59 40 50
-11.8717 26.3089 54.7704 52 32 48
-12.9025 26.6734 54.7359 51 37 53
-17.2153 27.4095 54.5419 61 54 70
-18.217 27.2156 54.4738 68 64 77
-19.3294 26.9369 54.3942 62 60 74
-21.0234 26.7991 54.291 69 67 75
-22.834 26.5761 54.176 62 61 45
-24.5774 27.0034 54.1057 65 36 39
-25.4897 26.8918 54.0478 74 37 45
-31.4607 25.8737 53.6505 94 48 52
-32.785 26.6478 53.6256 98 53 73
34.0443 -25.0474 53.6076 29 26 45
32.1312 -23.5812 53.5934 30 26 49
36.0463 -6.32385 54.9155 31 24 51
34.02 -4.41071 54.9234 30 23 49
17.298 26.7061 55.9674 85 74 85
16.2305 26.9772 55.9246 120 101 124
10.0107 26.4468 55.5403 70 92 127
8.48036 26.9385 55.4855 99 109 120
4.11815 28.0386 55.31 93 97 102
-2.80472 25.9116 54.7842 65 40 58
-6.55822 27.6043 54.6808 53 34 48
-7.78289 27.8014 54.6244 52 32 46
-22.9425 26.4913 53.6867 65 56 42
-24.7963 26.8339 53.6041 72 39 39
-29.3537 25.701 53.2751 84 40 52
-30.1668 25.6727 53.2275 89 41 50
-31.8263 26.1887 53.1669 111 55 57
-33.2638 26.8773 53.1299 100 63 80
33.6041 -24.129 53.1623 30 26 46
29.9816 -23.7163 52.9827 32 25 50
35.6172 -5.44519 54.4818 33 25 53
34.5751 -3.87112 54.524 31 24 52
34.1641 -2.33509 54.5997 30 23 46
34.7494 -0.485731 54.7523 31 24 49
35.2497 12.5525 55.6216 85 79 105
35.3271 15.6921 55.8285 95 91 104
34.3001 16.5757 55.827 58 44 63
33.273 17.4593 55.8256 33 24 52
32.246 18.343 55.8241 33 24 52
24.0297 25.4119 55.8124 65 49 75
23.0027 26.2956 55.811 43 39 86
20.2682 26.8886 55.6936 51 42 82
18.8959 26.3004 55.5776 47 39 83
12.2121 26.5251 55.2117 48 45 96
6.55494 27.1057 54.9272 87 104 144
-12.6907 26.8404 53.8148 70 52 73
-13.0483 27.1481 53.8143 70 61 75
-19.0054 27.189 53.4779 75 67 71
-21.3475 26.5455 53.3031 67 53 60
-23.051 26.4065 53.1972 66 44 43
-25.0154 26.6641 53.102 76 39 42
-29.9422 25.8441 52.7688 85 41 47
-32.7837 26.6476 52.6589 91 53 59
34.0631 -24.344 52.6955 31 25 49
32.8783 -23.5041 52.6821 31 26 53
15.4125 26.8709 54.9605 72 54 103
8.28661 26.7756 54.5447 78 75 76
4.469 27.7376 54.3879 103 132 163
-2.70188 25.9943 53.8621 87 75 93
-7.78169 27.8013 53.6879 66 34 52
-11.66 26.4759 53.3786 68 37 58
-14.7952 28.1289 53.306 71 63 80
-18.108 27.2993 53.0615 72 54 55
-23.7408 26.4639 52.6833 76 40 43
-25.708 26.7218 52.5871 84 46 54
-28.541 25.7291 52.3595 74 41 54
-30.8679 25.7301 52.2258 88 50 53
-31.3463 25.9592 52.2133 98 55 57
-31.7125 26.2742 52.2127 94 53 56
-33.2625 26.8771 52.1629 65 48 54
35.7149 13.5997 54.81 41 33 55
35.3283 15.6919 54.9253 48 40 63
34.3012 16.5756 54.9238 41 32 57
33.2742 17.4592 54.9224 33 25 55
32.2472 18.3428 54.9209 36 25 57
23.0038 26.2954 54.9077 102 94 75
20.2694 26.8885 54.788 83 70 79
18.2711 26.3548 54.6369 51 38 74
17.2997 26.7059 54.6036 53 43 73
12.5015 26.7682 54.3291 48 42 89
10.3999 26.7718 54.2074 76 71 83
9.17878 26.3389 54.108 91 89 90
7.74335 26.9125 54.0624 69 75 98
4.37078 27.656 53.9155 100 133 168
3.72411 27.7124 53.8817 100 131 169
-8.34285 27.9412 53.1962 71 36 55
-12.9 26.673 52.8481 78 54 69
-13.721 27.2052 52.8355 71 54 75
-14.6483 27.6542 52.8112 64 50 76
-17.4267 27.2415 52.6228 68 46 51
-18.8967 27.2729 52.5395 74 38 41
-21.7078 26.8564 52.3489 82 38 41
-24.322 26.6062 52.1806 90 44 48
-26.6226 26.6097 52.0473 83 47 59
-28.3177 25.9 51.9022 70 43 57
-31.5993 26.3598 51.7419 62 49 53
34.5054 -25.2624 51.7023 29 26 43
8.19026 26.694 53.6141 100 88 114
7.00381 26.8867 53.5573 85 99 139
6.36041 26.9424 53.5233 93 121 160
-2.80234 25.9113 52.9176 80 64 79
-7.32239 27.5785 52.7634 72 37 49
-13.3626 26.8973 52.364 76 45 56
-17.1735 26.8482 52.1373 66 38 41
-21.0564 27.3623 51.9438 86 51 50
-24.9037 26.7487 51.6774 86 55 61
-27.1753 26.1838 51.5067 75 53 60
-30.53 25.9871 51.2969 43 38 49
-32.4435 26.9041 51.2457 35 44 65
-33.3743 26.7914 51.1836 38 60 80
35.3728 13.8949 53.9039 31 25 50
20.2705 26.8883 53.8825 130 98 85
17.2066 26.6252 53.6834 48 34 73
15.2243 26.7092 53.5717 53 58 35
13.8063 27.2786 53.526 67 63 54
12.6945 26.9299 53.4367 63 54 64
12.252 27.1471 53.4251 85 62 76
11.8093 27.3645 53.4135 117 90 97
9.17996 26.3387 53.189 147 107 114
3.72529 27.7122 52.9583 100 129 169
-8.6522 27.6928 52.2242 79 38 53
-9.63058 27.5014 52.1534 79 39 54
-12.7935 26.7565 51.9161 78 41 52
-14.1833 27.4295 51.879 76 38 46
-23.0486 26.4062 51.2854 65 55 59
-25.0129 26.6638 51.1865 55 61 70
-30.783 26.3873 50.8263 39 42 49
-31.6267 26.9311 50.8128 43 48 66
-32.2175 27.075 50.7875 38 47 69
35.33 15.6917 53.5704 35 25 54
34.3029 16.5753 53.569 34 24 53
33.2759 17.459 53.5675 35 25 54
23.0056 26.2952 53.5529 126 130 83
22.6632 26.5897 53.5524 141 139 92
21.5795 26.2433 53.4641 151 144 103
19.4608 26.7825 53.3741 98 65 65
18.4608 26.5156 53.2962 74 44 62
16.4844 26.5993 53.1837 40 39 67
12.2526 27.147 52.9679 105 76 87
7.45183 26.6678 52.6484 124 115 118
6.26339 26.8606 52.5905 102 121 150
5.81568 27.0796 52.5786 102 128 166
-0.123285 26.3224 52.1722 97 91 109
-3.91651 26.1887 51.9364 70 38 56
-5.23899 26.3008 51.8649 67 42 57
-13.0452 27.1477 51.4557 79 43 51
-17.2792 26.764 51.1766 79 54 59
-19.3252 26.9363 51.066 71 56 64
-19.7934 27.1623 51.0533 67 55 63
-23.7384 26.4636 50.7701 52 66 74
-25.1223 26.5788 50.6952 50 73 88
-28.2047 25.9852 50.4707 54 74 78
20.2717 26.8882 52.9769 133 98 88
17.019 26.4638 52.7515 58 35 70
15.1304 26.6283 52.6488 67 71 40
14.2487 27.0616 52.6253 117 104 63
11.9066 27.4452 52.5102 118 72 91
8.88919 26.094 52.2356 96 66 89
-4.3722 26.4104 51.4569 80 44 58
-6.15314 26.7452 51.3724 89 60 69
-8.75463 27.6098 51.2746 89 42 49
-9.73343 27.4182 51.2024 91 44 50
-10.6106 27.3092 51.142 91 44 51
-11.3854 27.2832 51.0934 90 45 50
-18.8566 26.7104 50.6033 46 57 75
-20.6937 27.0515 50.5158 52 70 70
-24.5389 26.4362 50.2416 49 79 99
35.3311 15.6916 52.6672 34 26 58
34.3041 16.5752 52.6658 32 25 55
33.2771 17.4588 52.6643 34 24 53
19.5554 26.8626 52.4787 104 71 75
18.462 26.5154 52.3881 91 60 68
16.2015 26.357 52.2394 52 39 65
14.595 26.7641 52.1696 103 106 83
13.7125 27.1977 52.1459 91 76 71
7.06126 26.3411 51.6814 138 114 133
6.16628 26.7788 51.6572 109 113 153
1.43353 27.0066 51.3846 90 94 109
-0.323444 26.1574 51.2188 80 71 83
-1.8375 26.1036 51.1229 68 40 53
-5.79775 26.4399 50.9048 85 52 61
-6.71321 26.8846 50.8798 86 61 56
-11.7416 27.59 50.6223 78 55 48
-17.8134 26.3432 50.1661 52 65 75
-23.7371 26.4634 49.8135 50 84 105
-24.9012 26.7484 49.7623 58 105 130
-28.5682 26.2989 49.5078 52 67 76
-30.1915 26.2436 49.4051 43 46 57
-31.0056 26.2158 49.3536 45 47 56
-33.5982 26.6196 49.2236 76 89 105
23.692 25.7059 52.199 84 52 70
18.0243 26.7311 51.9221 95 62 80
16.1073 26.2761 51.7724 65 46 81
14.5003 26.6832 51.702 74 67 92
12.4464 27.3086 51.6194 79 56 68
8.15142 26.0672 51.2686 129 88 97
5.71908 26.9978 51.184 103 120 156
5.27103 27.2169 51.1717 102 130 170
3.78058 27.1657 51.0765 100 133 170
-0.322849 26.1573 50.7537 86 81 85
-4.92984 26.5493 50.4978 87 47 57
-9.73223 27.418 50.2631 67 55 49
-10.5051 27.3922 50.2138 64 58 48
-13.0434 27.1474 50.0406 68 64 43
-17.9201 26.2588 49.6787 60 85 101
-21.7041 26.8559 49.4876 62 77 86
-25.4835 26.891 49.2577 68 117 141
-26.9508 26.3539 49.1299 72 110 123
-31.3708 26.5305 48.8705 50 53 60
33.9144 5.06031 50.9266 32 24 55
35.3757 13.8945 51.64 34 23 55
35.3323 15.6914 51.764 33 24 56
34.3053 16.575 51.7625 34 25 53
22.0823 25.4919 51.6324 99 49 65
21.489 26.1627 51.6429 124 77 93
15.2877 26.169 51.2584 50 31 80
11.4656 27.6624 51.1264 104 63 75
6.51687 26.4781 50.7358 140 125 136
3.03379 27.14 50.5662 99 127 160
-3.40444 26.6023 50.1287 75 47 52
-6.81506 26.8015 49.9311 82 73 55
-9.83564 27.3349 49.7812 76 68 44
-11.5309 27.7562 49.7056 88 76 42
-14.0338 26.9539 49.4937 94 79 46
-20.5472 26.5719 49.0625 78 99 111
-23.6265 26.5481 48.8697 45 80 103
-24.9 26.7482 48.8048 60 109 134
-28.091 26.0703 48.5589 68 95 105
-30.4142 26.0723 48.4149 47 48 57
-33.4838 26.7052 48.269 82 88 85
-33.8505 27.0207 48.2684 117 125 113
-34.4439 27.165 48.2418 131 137 112
35.1127 -23.2738 48.526 78 72 91
34.4292 4.28732 50.4443 32 25 52
33.584 6.00512 50.5136 31 24 47
35.5555 14.0608 51.2103 34 24 53
24.0355 25.4112 51.2963 65 30 45
23.6932 25.7057 51.2958 82 40 50
19.6506 26.9426 51.1306 104 68 94
16.0137 26.1951 50.8496 57 39 78
14.5014 26.683 50.7896 43 35 83
12.4475 27.3084 50.7054 76 54 76
8.6966 25.9303 50.3724 121 77 92
8.15259 26.067 50.348 137 94 104
7.41228 26.0404 50.2998 147 112 120
5.62179 26.916 50.2499 106 116 139
2.93497 27.058 50.0917 96 125 166
-0.220967 26.2396 49.8358 82 84 99
-3.85942 26.8239 49.6494 68 55 46
-5.13352 26.3833 49.5382 69 58 43
-10.3996 27.4751 49.286 100 96 34
-17.1304 26.2859 48.7798 88 89 98
-20.4384 26.6562 48.5989 70 87 109
-21.5943 26.9402 48.5467 50 74 98
-25.3723 26.9757 48.3126 69 115 146
-26.3968 26.779 48.2344 72 108 127
-31.4819 26.4448 47.8921 53 60 62
35.4295 -21.5875 48.1894 51 43 59
34.1894 5.3198 50.0435 33 24 53
35.3335 15.6913 50.8608 32 25 54
34.3064 16.5749 50.8593 33 23 53
24.0361 25.4111 50.8447 80 36 54
22.1763 25.5722 50.7387 99 48 62
15.3839 26.2497 50.358 43 34 77
11.2741 27.5005 50.188 100 61 80
8.44598 26.3119 49.9238 133 86 99
6.41985 26.3962 49.8018 154 129 127
5.52391 26.8343 49.7766 105 111 130
-2.64305 26.6286 49.2456 57 57 48
-6.91692 26.7184 48.9818 87 85 45
-9.93859 27.2516 48.8291 124 111 34
-11.4251 27.8391 48.7773 135 110 53
-23.6253 26.5479 47.9134 50 93 120
-24.6792 26.9176 47.8733 64 108 138
-27.2022 26.7519 47.7019 69 95 109
-28.8191 26.6977 47.5958 45 52 64
-30.5251 25.9864 47.4369 49 52 68
-33.3694 26.7908 47.3148 80 82 82
-33.736 27.1062 47.3143 116 112 111
-34.3293 27.2504 47.2872 136 120 107
-35.0367 27.3093 47.2467 142 126 106
-35.316 28.2824 47.2989 141 126 102
-33.5326 30.2095 47.55 140 129 105
35.3032 -23.0799 47.5967 75 64 84
34.2811 5.40616 49.5964 35 26 58
33.7677 6.17742 49.6196 34 24 55
19.5583 26.8622 50.2126 100 73 84
16.0148 26.1949 49.9382 50 35 64
14.5026 26.6829 49.8771 54 55 62
12.2567 27.1465 49.7674 89 56 62
7.41346 26.0402 49.3783 143 95 106
3.48544 26.92 49.1915 84 113 173
1.78786 26.7039 49.0676 81 113 164
-0.219778 26.2395 48.9058 74 99 129
-3.75632 26.9063 48.7286 91 92 38
-7.37465 26.9409 48.5003 101 93 46
-10.2942 27.558 48.3588 146 117 48
-12.4101 27.6472 48.2303 132 110 83
-13.715 27.2045 48.1149 124 112 91
-16.2356 26.3971 47.8956 142 142 108
-25.4811 26.8907 47.3416 71 119 145
-26.2852 26.8638 47.2884 75 113 129
35.3346 15.6911 49.9575 35 26 59
34.3076 16.5747 49.9561 33 23 55
33.2805 17.4584 49.9546 33 23 52
24.0372 25.411 49.9415 95 46 67
15.4801 26.3305 49.458 61 50 49
13.9665 26.8187 49.3963 114 95 71
12.5079 26.7673 49.2986 100 65 63
11.8146 27.3638 49.2976 111 61 71
9.18525 26.3381 49.0534 131 68 78
6.22443 26.2324 48.8551 154 118 120
5.22933 26.5889 48.8171 98 94 111
4.23275 26.9458 48.7791 80 101 141
-2.5404 26.7109 48.326 82 90 41
-9.37321 27.1113 47.9155 149 127 49
-10.0415 27.1684 47.8766 151 125 53
-11.0674 27.5322 47.8372 144 114 74
-13.9667 27.5956 47.6552 149 147 113
-19.0675 26.5413 47.2498 89 78 56
-21.5925 26.9399 47.1165 87 96 90
-23.7335 26.463 46.9438 65 95 113
-24.8976 26.7479 46.8897 64 113 134
-30.636 25.9006 46.4584 48 55 65
-32.4373 26.9033 46.4158 60 61 70
-33.3681 26.7906 46.3476 76 81 78
34.7051 4.54729 48.6424 43 33 64
34.5556 5.66515 48.7152 45 34 69
34.2246 6.60784 48.7633 37 26 53
34.9928 15.9856 49.5054 38 29 56
23.6955 25.7054 49.4894 102 51 59
23.0108 26.2945 49.4884 102 60 73
19.5595 26.8621 49.3062 117 64 77
18.2158 26.8915 49.2211 98 58 68
12.3164 26.6051 48.8169 106 74 80
11.6227 27.2019 48.8159 115 70 81
7.21866 25.8764 48.4321 140 80 99
3.28802 26.756 48.2417 78 98 114
2.63888 26.8119 48.2037 74 101 132
-0.671834 26.4601 47.9628 69 105 141
-1.22633 26.5986 47.937 73 97 104
-2.99459 26.9323 47.8468 119 112 41
-3.55145 27.0713 47.8209 141 127 51
-6.91512 26.7181 47.5764 136 119 64
-8.03887 26.9975 47.524 116 101 46
-12.619 27.4805 47.2623 132 127 107
-14.4295 27.82 47.1698 162 153 121
-19.0669 26.5412 46.7742 97 89 62
-21.9178 26.6865 46.5998 115 117 103
-25.0068 26.663 46.3975 67 114 133
-26.5048 26.6937 46.3025 73 115 128
-27.3111 26.6666 46.2481 68 101 111
-28.6752 26.2129 46.1261 53 77 86
-32.6622 26.7321 45.9055 59 61 68
-33.9606 26.9346 45.8361 120 123 107
35.2887 -23.7802 46.1111 35 33 55
35.3996 -22.9832 46.1777 32 31 54
14.2182 26.4399 48.4716 118 114 108
11.8739 26.8224 48.3465 115 70 78
9.38086 26.5008 48.1592 121 66 76
8.83809 26.6376 48.1339 129 67 82
6.22561 26.2323 47.9325 149 95 100
5.67896 26.3695 47.9069 142 105 97
4.58412 26.6443 47.8557 129 122 97
-2.89245 27.0147 47.3935 136 120 48
-7.01763 26.635 47.095 145 124 64
-12.8287 27.3137 46.7648 153 143 118
-16.6999 26.622 46.4597 170 148 116
-17.2731 26.7632 46.4327 167 146 117
-18.1686 26.6523 46.3658 133 120 95
-20.2191 26.8246 46.2443 143 141 104
-25.6994 26.7207 45.8775 75 122 147
-29.1509 26.4414 45.6306 49 64 74
-30.6348 25.9004 45.4931 65 70 81
-36.5416 26.767 45.1707 150 134 102
35.3219 -22.3816 45.7404 39 37 61
35.3363 15.6909 48.6027 70 69 99
34.3093 16.5745 48.6012 45 34 61
33.2823 17.4581 48.5998 34 25 52
24.039 25.4107 48.5866 116 56 74
23.3543 25.9998 48.5857 110 70 99
19.5606 26.8619 48.3998 131 67 81
18.3109 26.9717 48.3254 124 69 81
12.1252 26.4427 47.8769 89 70 75
7.21983 25.8763 47.5102 125 70 76
3.93742 26.7 47.3552 130 134 99
2.14159 26.4013 47.214 98 108 127
-6.55879 26.4124 46.6399 154 134 54
-7.57882 26.7746 46.5997 126 108 44
-8.2447 26.8312 46.56 116 109 42
-9.01541 26.8048 46.5071 129 114 48
-17.8463 26.9046 45.931 134 119 103
-23.2597 26.2356 45.523 153 141 122
-24.423 26.5203 45.4675 88 105 118
-26.5035 26.6936 45.343 74 115 132
-27.3099 26.6664 45.2877 70 103 120
-28.8968 26.0419 45.1359 59 89 104
-31.1123 26.1295 44.9961 82 79 87
-35.7166 26.7943 44.7418 145 132 96
35.3846 -23.6831 45.1689 32 30 56
35.4331 -21.588 45.331 71 68 88
34.9946 15.9853 48.1506 70 59 87
33.9675 16.869 48.1491 39 29 55
23.0125 26.2943 48.1336 121 101 125
19.2806 26.6209 47.9096 124 70 84
11.7788 26.7411 47.4186 67 58 61
10.3119 26.6894 47.3169 66 52 71
9.4792 26.5821 47.2533 80 58 77
8.74192 26.556 47.2022 93 59 73
4.38745 26.4804 46.9062 101 91 54
-0.116152 26.3215 46.594 84 115 147
-1.57728 26.9018 46.5406 98 95 58
-2.33511 26.8757 46.4881 133 118 53
-2.89125 27.0145 46.4615 148 124 50
-3.44788 27.1536 46.435 153 131 53
-18.7424 26.7937 45.3882 145 130 104
-19.5334 26.7669 45.3334 153 139 109
-20.2179 26.8244 45.2922 160 144 113
-21.5543 26.3751 45.169 163 144 113
-22.0247 26.6016 45.1549 166 144 116
-24.8951 26.7476 44.9746 81 119 133
-30.7457 25.8146 44.5139 91 95 97
-33.4788 26.7045 44.3992 79 85 73
-36.3118 26.9388 44.2281 147 134 99
35.3375 15.6907 47.6995 52 35 69
34.3105 16.5744 47.698 61 52 71
33.2834 17.458 47.6966 36 23 54
24.0401 25.4106 47.6834 114 64 81
23.3554 25.9997 47.6824 116 84 108
18.1241 26.8108 47.3928 120 68 83
14.029 26.2777 47.0767 84 103 136
12.1264 26.4425 46.9614 67 77 76
10.0218 26.4454 46.8201 67 67 86
6.87159 26.1767 46.5878 104 58 57
-7.78437 26.6082 45.6355 142 119 52
-9.11806 26.7215 45.5545 122 99 46
-16.1254 26.4806 45.0649 148 128 90
-18.7418 26.7936 44.913 147 133 101
-19.5328 26.7668 44.8577 154 141 106
-23.8399 26.3778 44.5384 140 139 127
-25.0044 26.6627 44.4819 86 121 131
-29.4839 26.1849 44.1442 92 115 114
-35.6527 28.0258 43.8703 147 134 97
35.3858 -23.6833 44.2133 62 63 79
35.34 -21.6846 44.3644 72 66 77
35.4505 -20.8925 44.433 52 45 60
35.2176 14.3553 47.1367 69 59 84
34.9957 15.9852 47.2474 46 39 67
23.0137 26.2941 47.2303 124 78 90
18.1247 26.8107 46.9387 124 73 75
13.2048 26.1703 46.5557 81 116 121
11.491 26.4976 46.4648 59 69 68
9.92546 26.3639 46.3483 70 88 89
8.74309 26.5559 46.2829 89 100 71
7.61338 26.2032 46.1791 92 86 50
-0.467346 26.6245 45.6638 91 115 121
-1.47504 26.984 45.6232 105 95 55
-2.78848 27.0969 45.5428 147 118 48
-3.44669 27.1534 45.5025 151 123 48
-6.09898 26.1898 45.2484 159 131 51
-8.55382 26.5815 45.1121 135 107 62
-16.6975 26.6216 44.5631 136 124 88
-22.459 26.2628 44.1447 164 146 111
-31.8139 26.1871 43.5046 73 63 76
-33.1109 26.3889 43.4322 64 69 64
-35.4868 26.9658 43.3157 144 132 105
34.4987 -25.9688 43.4969 66 61 83
35.1353 -22.5755 43.8045 79 66 86
34.3116 16.5742 46.7948 73 65 87
33.2846 17.4578 46.7933 38 26 57
24.0413 25.4104 46.7802 111 64 74
23.3566 25.9995 46.7792 115 53 73
19.6261 26.3249 46.5495 146 78 93
15.0435 26.5464 46.2533 99 103 114
14.1257 26.3586 46.176 88 105 120
9.38379 26.5005 45.8628 92 117 86
7.51611 26.1214 45.7056 111 109 55
6.9709 26.2584 45.679 113 90 51
5.68191 26.3691 45.5994 113 71 61
4.83844 26.2607 45.5333 108 79 53
-2.23201 26.9579 45.1041 138 117 53
-8.65701 26.4982 44.6291 137 107 73
-9.78518 26.778 44.5737 103 94 74
-17.4841 26.5947 44.033 137 129 92
-18.8481 26.7092 43.9486 150 139 102
-23.9482 26.2927 43.5675 146 143 124
-30.8561 25.7285 43.0513 81 84 90
-33.477 26.7043 42.948 81 88 75
-35.7908 28.5119 42.9305 148 135 100
34.7509 -27.0872 42.9466 42 33 51
34.5774 -26.5769 42.9747 53 46 60
35.2924 -23.7807 43.2435 79 65 78
35.3412 -21.6848 43.4113 47 32 61
35.4517 -20.8927 43.4811 38 28 57
34.9969 15.985 46.3442 41 33 55
23.0148 26.294 46.3271 125 58 80
21.9878 27.1776 46.3256 149 69 90
20.7167 26.6719 46.1983 149 78 99
15.0441 26.5464 45.7973 97 89 84
11.2028 26.2536 45.5095 66 74 88
10.3715 26.1458 45.4437 75 92 104
-1.47385 26.9839 44.6928 103 95 50
-6.09778 26.1896 44.3116 160 127 55
-16.803 26.5375 43.6008 120 106 92
-19.4232 26.8508 43.4447 153 139 104
-19.8916 27.0768 43.4302 159 146 108
-22.2046 25.8663 43.1757 161 149 108
-22.6759 26.0931 43.161 163 148 111
-24.7493 26.2651 43.0315 108 117 117
-25.0025 26.6625 43.0453 91 117 132
34.6122 -25.1661 42.6085 48 42 62
35.2311 -22.4788 42.8643 42 33 58
34.3128 16.5741 45.8916 48 40 66
33.2857 17.4577 45.8901 39 27 63
32.2587 18.3413 45.8886 36 24 56
24.0424 25.4103 45.877 118 69 70
23.3577 25.9994 45.876 131 63 80
21.2464 26.5371 45.7718 149 73 84
19.0025 26.3792 45.6033 136 78 89
18.1265 26.8105 45.5765 112 66 80
16.305 26.4366 45.4203 125 88 90
13.9358 26.1963 45.2365 82 67 64
12.3796 26.0624 45.1177 71 64 58
9.83022 26.2823 44.9579 92 118 118
7.71298 26.2847 44.8109 127 129 62
4.29139 26.398 44.582 101 96 38
-0.566295 26.5419 44.2557 83 108 113
-2.43354 26.7928 44.1457 133 114 49
-8.1961 26.2751 43.7041 153 116 68
-10.5577 26.7514 43.5776 124 114 85
-10.9144 27.0582 43.5771 141 132 89
-15.4445 26.4233 43.2119 124 98 70
-17.59 26.5104 43.0696 115 100 80
-19.9989 26.9925 42.9403 160 147 109
-24.7487 26.2651 42.5525 102 112 114
-25.0019 26.6624 42.5664 86 114 130
-30.9672 25.6425 42.0709 75 78 86
-31.3334 25.9575 42.0704 61 60 65
-31.9246 26.1011 42.0407 57 53 61
-33.4757 26.7041 41.9805 79 87 73
-36.5623 27.3406 41.8163 146 132 99
35.531 -21.4921 42.4869 31 26 48
35.0921 -20.5825 42.5288 30 24 49
35.3131 -19.0051 42.6702 31 24 52
35.5965 -14.694 43.0341 59 46 69
23.016 26.2938 45.4239 143 70 84
20.5316 26.5113 45.2671 140 82 90
13.2071 26.17 44.7264 96 74 77
10.2758 26.0642 44.5125 82 107 119
-1.67484 26.8189 43.7351 94 91 57
-3.85166 26.8228 43.5828 151 115 49
-6.09658 26.1894 43.3749 154 115 52
-12.0041 26.7816 43.008 152 139 89
-16.6951 26.6213 42.6664 127 111 74
-18.2711 26.5675 42.5517 112 106 70
-20.3224 26.7396 42.4216 160 149 109
-22.3124 25.7813 42.2056 162 150 111
-22.6746 26.093 42.2051 165 146 115
-23.4741 26.0653 42.1469 162 143 121
-31.5577 25.7859 41.5579 63 64 67
-32.8547 25.9872 41.4831 52 58 58
-34.0684 26.8482 41.4667 120 126 105
-35.3446 26.4774 41.3477 139 130 105
35.4212 -22.2856 41.939 29 24 46
34.9984 -20.6786 42.0384 29 24 46
35.5177 -18.1243 42.2807 32 26 51
35.6129 -14.0121 42.6184 31 26 55
34.7799 0.167712 43.7008 51 38 69
34.371 1.68772 43.7943 41 30 63
34.856 10.3145 44.5229 31 27 61
34.3139 16.5739 44.9883 50 40 69
33.2869 17.4575 44.9869 49 40 69
32.2599 18.3411 44.9854 35 25 54
31.5752 18.9302 44.9844 34 25 52
24.0436 25.4101 44.9737 106 50 66
23.3589 25.9992 44.9728 136 60 83
18.5657 26.5946 44.6819 71 47 61
16.0218 26.194 44.4699 126 76 86
15.4865 26.3296 44.443 107 48 64
14.8555 26.3844 44.4028 101 42 63
12.4769 26.1435 44.2153 91 57 64
11.8412 26.1984 44.1748 75 66 78
7.81192 26.3661 43.9036 116 126 60
4.78712 26.8073 43.7253 95 108 13
3.74386 26.5355 43.6297 123 134 34
-2.6353 26.6275 43.1863 131 110 55
-12.2135 26.6145 42.5084 152 139 90
-13.5609 26.7283 42.4223 150 128 82
-14.4479 26.6179 42.3508 154 131 91
-15.2308 26.591 42.2933 154 128 88
-17.3746 26.6785 42.1488 114 97 60
-24.7475 26.2649 41.5945 92 99 111
-34.408 26.5908 40.938 125 130 108
-36.7648 26.5942 40.7717 150 138 109
35.2492 -21.7816 41.4907 30 25 47
23.0171 26.2937 44.5207 139 60 86
21.5911 26.2418 44.4148 109 48 65
20.3463 26.3505 44.335 88 42 53
14.1286 26.3582 43.8927 103 44 68
12.0343 26.3608 43.7437 73 64 80
10.0831 25.901 43.5673 81 106 131
9.63781 26.119 43.5533 89 116 142
-1.77479 26.7364 42.7903 82 81 63
-5.9925 26.2724 42.4522 156 118 55
-7.63142 26.1352 42.3243 157 113 50
-11.6455 26.474 42.0658 139 134 88
-16.6939 26.6212 41.7181 137 121 87
-18.9526 26.6246 41.5575 146 136 101
-19.5285 26.7663 41.5279 156 142 105
-22.2022 25.866 41.2644 161 148 108
-22.5644 26.1776 41.2639 166 144 116
-23.3636 26.15 41.2047 160 133 123
-25.2531 27.0592 41.1439 77 119 148
-31.669 25.6998 40.5765 66 72 70
-34.0134 25.7008 40.4095 63 77 69
34.9996 -20.6788 41.0863 30 25 48
36.2203 -15.4035 41.6056 31 25 49
34.6894 0.0792747 42.7624 34 25 54
34.2806 1.59979 42.8575 51 39 66
35.4267 8.36069 43.493 39 29 56
35.1122 9.93264 43.599 34 26 49
20.3468 26.3504 43.8819 98 55 64
17.8466 26.5687 43.7202 98 66 69
15.9282 26.113 43.5451 106 56 67
13.4962 26.4131 43.395 81 38 59
7.91085 26.4476 42.9967 93 107 56
-4.15592 26.5745 42.1405 147 112 57
-8.2974 26.1914 41.8118 158 115 59
-9.5293 26.3876 41.7393 123 96 55
-10.8688 26.5008 41.6524 112 105 77
-12.5278 26.3634 41.522 149 141 95
-13.6654 26.6444 41.4633 147 128 81
-14.4467 26.6177 41.405 144 127 81
-15.3358 26.507 41.3321 145 129 83
-17.3734 26.6783 41.1998 140 121 85
-25.3625 26.9744 40.6503 77 123 146
-30.1203 25.0982 40.1551 65 103 114
-34.5204 26.5048 39.9542 132 133 109
-36.5348 26.7661 39.8309 154 136 107
34.967 -22.0714 40.493 30 25 47
33.2886 17.4573 43.632 68 59 86
32.2616 18.3409 43.6306 35 24 54
31.5769 18.93 43.6296 34 25 54
24.0453 25.4099 43.6189 113 48 64
23.3606 25.999 43.6179 136 61 78
21.4994 26.1613 43.4966 136 72 80
14.0343 26.277 42.9657 73 32 54
9.09621 26.2555 42.6065 89 105 100
4.78889 26.8071 42.3402 133 146 38
4.18783 27.491 42.3531 138 145 54
-5.32839 26.2161 41.559 148 111 62
-11.8542 26.3066 41.0941 122 115 84
-17.4799 26.5941 40.7106 149 129 90
-18.9514 26.6245 40.6066 163 149 109
-22.2009 25.8658 40.3088 164 146 89
-22.5631 26.1774 40.3082 164 139 98
-23.253 26.2348 40.263 143 115 104
-26.276 26.8626 40.096 73 115 138
-31.7805 25.6137 39.5945 66 70 65
-34.0121 25.7006 39.4401 72 81 77
34.5988 -0.00925013 41.8236 30 23 53
34.1901 1.51178 41.9203 36 26 55
35.4433 8.99856 42.6343 33 23 53
35.1134 9.93249 42.6878 34 22 55
34.5942 13.772 42.9692 48 46 80
23.0189 26.2935 43.1658 140 63 81
16.8428 26.3007 42.7158 82 42 58
15.2036 26.0865 42.5784 77 30 55
13.4016 26.3318 42.4673 59 33 53
12.7674 26.3868 42.4256 65 38 56
10.6267 25.7644 42.2177 69 54 71
9.98781 25.8192 42.1756 83 76 95
8.45597 26.3106 42.1047 91 103 65
-1.06721 26.1289 41.3947 81 108 148
-2.17823 26.4059 41.3367 65 77 80
-8.1925 26.2746 40.887 139 104 60
-10.8676 26.5006 40.7106 102 90 71
-13.095 26.5037 40.5483 160 136 96
-14.7634 26.366 40.4151 140 120 80
-15.4409 26.4229 40.3704 138 120 82
-25.6915 26.7197 39.6472 73 119 144
-29.7831 25.3557 39.2353 57 103 118
-30.1489 25.6704 39.2348 67 110 115
29.6569 -22.701 39.0957 31 24 51
24.0465 25.4098 42.7157 100 61 56
20.6921 26.0546 42.523 145 75 89
17.7542 26.4879 42.3433 89 45 60
12.3251 26.6039 41.9538 63 36 56
4.29553 26.3975 41.3461 133 148 27
0.946123 26.5942 41.1162 112 122 120
-1.72307 26.1846 40.8856 81 107 137
-2.279 26.3232 40.8564 70 90 96
-6.09299 26.189 40.5646 142 105 58
-9.63165 26.3039 40.3141 125 103 66
-12.0631 26.1391 40.1214 115 105 84
-22.1997 25.8657 39.3531 167 136 104
-22.5619 26.1773 39.3526 150 116 101
-23.4705 26.0649 39.2764 114 85 92
-31.8919 25.5277 38.6121 102 127 133
-32.2584 25.8431 38.6115 96 107 99
-33.3035 25.6428 38.5179 89 100 85
-34.238 25.5281 38.4396 86 97 76
33.3586 -27.1515 38.5136 31 25 48
31.438 -25.6804 38.4955 32 23 48
30.6328 -24.444 38.5403 31 25 47
30.0966 -23.6209 38.5701 30 24 46
35.0242 9.8476 41.7628 34 25 54
34.6949 10.7801 41.8172 36 25 53
34.637 11.9631 41.9128 54 39 66
23.02 26.2933 42.2626 114 58 65
20.5062 25.8936 42.0425 137 70 74
19.9757 26.0283 42.0146 134 70 74
17.5045 26.8648 41.9021 74 31 47
15.2048 26.0864 41.6659 75 29 52
14.036 26.2768 41.5954 64 30 47
10.4342 25.601 41.2714 79 42 60
9.98899 25.819 41.2568 105 68 85
2.09802 26.9487 40.7674 127 131 91
-0.209075 26.2381 40.5364 90 109 151
-3.95578 25.5499 40.2006 77 85 82
-4.41251 25.7717 40.1855 89 77 60
-9.88333 26.694 39.858 112 102 74
-12.6306 26.2794 39.6194 135 125 90
-13.8743 26.4766 39.5439 147 135 95
-14.9745 26.1979 39.4388 142 128 93
-15.5461 26.3387 39.4083 146 132 96
-18.6967 26.2298 39.1656 166 150 102
-28.5232 25.7267 38.3949 62 104 127
-29.6699 25.4414 38.2858 55 102 123
-30.0356 25.756 38.2853 66 102 116
-34.7188 25.7581 37.9384 96 102 81
34.3259 13.5214 41.5678 44 34 59
24.0476 25.4096 41.8124 134 115 91
20.4134 25.813 41.5754 103 56 67
19.8828 25.9477 41.5472 106 58 68
19.2581 26.002 41.5052 110 58 64
13.7498 26.0335 41.0965 67 33 50
7.36929 26.5842 40.6669 117 128 44
6.08213 26.6953 40.5802 136 149 32
1.44776 27.0047 40.2604 96 113 124
-1.92448 26.019 39.9247 77 113 163
-4.97129 25.9106 39.6879 109 86 66
-6.65282 26.3282 39.5979 115 87 57
-10.5523 26.7506 39.3426 103 94 66
-14.7616 26.3657 38.9955 147 129 96
-20.9671 26.232 38.5207 166 132 96
-22.1985 25.8655 38.3975 152 108 94
-22.6698 26.0923 38.3816 118 84 88
-26.3516 26.2092 38.1166 65 112 136
-32.3701 25.7569 37.6286 138 125 123
-35.4277 25.8159 37.4053 131 140 118
30.441 -24.6404 37.5468 30 24 51
23.0212 26.2931 41.3594 80 32 57
17.1285 26.5424 40.9373 80 38 55
15.206 26.0862 40.7535 74 30 47
10.6291 25.7641 40.3814 69 24 41
8.3608 26.2287 40.2506 105 72 74
1.04809 26.6761 39.7386 90 111 135
-0.963865 26.2111 39.5473 74 113 165
-3.44432 25.9649 39.3395 79 100 112
-9.98637 26.6105 38.9026 107 98 83
-13.8731 26.4765 38.5986 144 122 94
-17.6525 25.8627 38.2615 163 148 101
-19.1262 25.8918 38.1531 164 147 95
-19.4871 26.2023 38.1526 166 144 99
-24.5991 25.7817 37.7318 61 84 111
-28.5219 25.7266 37.4318 61 103 124
-29.5569 25.5269 37.3368 53 102 125
-31.7488 25.0398 37.13 87 116 117
-34.9452 25.5855 36.9363 97 102 87
33.1687 -27.3494 37.038 32 26 51
30.5593 -23.8369 37.144 32 25 53
34.909 12.2147 40.5916 34 24 54
24.0488 25.4095 40.9092 135 105 92
23.7064 25.704 40.9087 117 72 68
18.8213 26.2173 40.5827 138 73 91
13.5596 25.871 40.1537 73 32 50
13.1171 26.0881 40.139 71 33 50
12.5783 26.2241 40.1099 66 27 43
7.27254 26.5024 39.7316 90 73 43
4.00063 26.1511 39.4531 143 131 46
2.35121 26.5643 39.3638 118 107 90
-6.75472 26.2448 38.6457 100 67 59
-10.09 26.527 38.4171 88 88 79
-12.3762 25.8874 38.1885 96 83 61
-12.8395 26.1116 38.1727 115 99 74
-19.4864 26.2022 37.6765 168 138 98
-22.3062 25.7805 37.4262 114 76 87
-22.7777 26.0073 37.4101 91 74 94
-25.1819 25.9239 37.2206 53 96 120
-29.8099 25.9271 36.8699 59 95 118
-32.4818 25.6708 36.6452 128 119 110
-35.5406 25.7295 36.4183 132 141 117
23.0223 26.293 40.4561 92 27 41
20.6017 25.9738 40.2434 106 41 66
15.2071 26.0861 39.841 87 43 54
12.1358 26.4413 39.6373 72 27 42
6.43341 26.3944 39.1975 96 58 45
0.547774 26.2644 38.7365 74 90 131
-1.41654 26.432 38.6011 70 110 163
-5.52945 26.0494 38.2535 81 67 72
-9.83707 26.1366 37.932 54 54 70
-17.7586 25.7781 37.2955 154 145 98
-19.0172 25.9762 37.2166 164 137 93
-21.1822 26.0625 37.0587 119 79 69
-22.9955 25.8374 36.9006 85 86 103
-24.8178 25.6111 36.7416 60 97 125
-28.4093 25.812 36.4847 60 103 127
-31.5222 25.2119 36.1946 83 108 120
-34.8301 25.6716 35.9819 98 105 91
33.1699 -27.3496 36.075 51 52 68
18.1963 26.2717 39.6311 150 79 91
17.2863 26.0841 39.5446 144 81 95
16.8469 26.3002 39.5298 132 72 86
14.0987 25.7351 39.2686 61 32 49
13.5608 25.8708 39.2391 68 39 50
13.1182 26.0879 39.2241 68 39 43
8.36256 26.2284 38.8704 100 38 59
7.07776 26.3389 38.7812 109 50 65
4.70317 25.5475 38.5289 87 39 53
-4.25269 26.491 37.9224 70 75 101
-5.52885 26.0493 37.7853 56 51 74
-6.65043 26.3279 37.7235 51 42 65
-7.62542 26.1345 37.6314 47 39 66
-9.47976 25.8296 37.4619 45 43 71
-10.2976 26.36 37.4455 57 45 63
-11.387 26.0822 37.3373 79 60 72
-12.4802 25.8034 37.2287 84 63 63
-13.513 26.168 37.1812 87 62 58
-14.4005 26.0568 37.1031 89 66 63
-19.8091 25.9484 36.6772 135 96 71
-23.2135 25.6673 36.3905 77 93 113
-25.7646 26.0663 36.2292 59 105 132
-27.013 25.6972 36.1007 62 109 134
-31.7755 25.6131 35.7267 115 136 142
-35.3112 25.9018 35.4799 135 148 123
32.5366 -26.6228 35.6086 63 65 87
30.8292 -24.2485 35.6863 40 36 49
24.0505 25.4092 39.5544 86 46 71
21.5046 26.1606 39.4234 102 33 65
20.6961 26.0541 39.3513 93 34 60
12.3292 26.6034 38.7511 90 62 47
6.88221 26.1754 38.2908 105 42 55
-0.407014 26.0725 37.7164 72 99 147
-8.8104 25.7735 37.0383 40 33 63
-15.6488 26.2542 36.5505 77 41 52
-17.0757 25.7213 36.3927 95 61 60
-18.3325 25.9191 36.3127 131 101 79
-20.3494 25.5248 36.1214 125 91 70
-21.1449 25.4967 36.0572 121 87 89
-22.8501 25.3551 35.9125 91 100 121
-25.7639 26.0662 35.7494 59 104 129
-29.3309 25.698 35.4403 54 99 130
-29.4728 26.1835 35.4722 57 91 121
-32.0286 26.0142 35.259 121 131 134
30.3355 -4.12118 36.9612 32 25 50
31.7994 2.40319 37.6571 32 24 52
30.0976 2.69402 37.5501 33 23 52
23.0241 26.2928 39.1013 133 52 78
19.2615 26.0015 38.7814 103 43 67
18.0093 26.1102 38.6933 123 64 93
15.8397 26.0313 38.5167 54 41 69
14.2909 25.8972 38.3838 53 38 51
13.7534 26.033 38.3539 67 40 48
4.15544 25.6847 37.573 98 29 57
2.85676 25.795 37.4814 92 30 57
1.2538 25.6582 37.344 80 43 71
0.801344 25.8787 37.3283 74 60 97
-5.52766 26.0492 36.8491 46 41 78
-8.91378 25.6898 36.5525 41 34 65
-10.0001 25.4111 36.4428 37 38 63
-11.0284 25.7745 36.3948 43 49 65
-12.5844 25.7193 36.2684 58 45 50
-13.1535 25.8596 36.2364 68 57 56
-13.6174 26.0839 36.2202 70 53 55
-14.7175 25.8044 36.1093 64 37 48
-18.4394 25.8346 35.8212 102 67 60
-21.2529 25.4117 35.5637 111 89 105
-26.901 25.7824 35.1555 62 109 133
-27.7091 25.7543 35.0899 62 105 132
-28.185 25.9826 35.0731 59 100 129
-32.3944 26.3294 34.7751 131 137 130
-34.8282 25.6714 34.5263 143 145 123
-35.31 25.9016 34.5092 155 159 128
33.3864 1.37261 37.2269 32 24 51
24.0517 25.4091 38.6511 80 42 66
20.7905 26.1344 38.4597 89 31 61
13.3116 26.2499 37.8815 78 31 41
12.3304 26.6032 37.836 100 38 53
11.8874 26.8206 37.8207 99 39 55
7.62457 26.2017 37.4296 100 33 60
5.25337 25.4101 37.1719 102 32 58
3.50718 25.7398 37.0641 99 29 60
2.65799 25.6302 36.9874 93 29 59
0.148156 25.9342 36.8172 76 85 128
-7.78529 25.4108 36.1459 41 35 71
-9.12126 25.5225 36.0508 40 37 67
-11.9101 25.663 35.8439 56 69 81
-13.8283 25.9159 35.7157 67 54 51
-17.2886 25.5523 35.4107 77 32 46
-19.6622 25.468 35.2164 100 74 81
-29.3296 25.6979 34.4762 55 96 131
-29.4715 26.1833 34.5086 56 88 122
-30.7327 25.8129 34.3761 64 94 122
-31.661 25.6988 34.2928 102 126 141
31.003 -24.7585 34.2113 90 88 104
31.2669 -6.46498 35.8875 32 23 50
30.2125 3.43448 36.6996 32 23 53
23.0252 26.2926 38.1981 84 32 60
18.1046 26.1908 37.7988 58 48 88
15.3052 26.1667 37.5747 90 85 75
14.5783 26.1403 37.5147 85 64 58
11.4447 27.038 37.3475 89 27 52
4.15663 25.6845 36.6474 101 30 59
1.9074 25.6029 36.4617 88 35 70
-0.959698 26.2106 36.2894 71 108 155
-8.55605 25.3829 35.6123 42 35 75
-9.12065 25.5224 35.5802 41 38 69
-10.9841 25.2151 35.4047 40 57 80
-12.0146 25.579 35.3559 62 80 93
-14.0393 25.7478 35.2107 61 48 54
-15.2878 25.9449 35.1296 69 29 51
-17.8628 25.6933 34.9027 71 35 55
-21.7957 24.9863 34.527 65 96 122
-25.7621 26.066 34.3102 58 104 127
-27.5968 25.8396 34.1443 59 103 133
-28.0725 26.0679 34.1273 57 100 130
31.5808 -24.1707 33.8299 92 88 107
32.3102 -21.3851 34.1421 90 89 104
32.4248 -20.591 34.2236 90 89 102
30.5249 -3.94073 35.5895 33 25 51
24.0528 25.4089 37.7479 69 54 85
17.0058 25.8413 37.2247 83 80 96
16.3766 25.8956 37.1794 103 99 99
15.7465 25.9501 37.1341 118 111 107
12.3316 26.6031 36.9209 96 27 52
5.74802 25.8206 36.324 100 29 55
3.80637 25.9863 36.184 99 32 65
1.05505 25.4929 35.9194 80 48 84
-1.16116 26.0453 35.7928 72 110 156
-7.42791 25.1042 35.2067 42 35 80
-10.9835 25.2151 34.9329 39 50 82
-12.8989 25.467 34.8029 55 56 68
-14.7156 25.8042 34.6886 71 38 56
-22.1576 25.2981 34.0483 67 107 138
-29.2167 25.7833 33.5289 53 95 128
-29.6121 26.6681 33.578 54 93 111
-31.4347 25.8703 33.3597 90 119 127
-31.8009 26.1854 33.3592 113 135 129
-32.0545 26.5861 33.3755 137 147 137
-34.3715 26.0157 33.1385 155 152 131
31.8132 -22.5698 33.5152 89 87 108
33.128 -18.5304 33.9918 91 88 102
31.6976 -7.35059 34.9033 48 49 78
31.9044 -6.49736 34.9982 47 43 73
31.6361 2.87986 35.8376 33 24 52
23.0264 26.2925 37.2948 80 31 51
18.1998 26.2712 36.9048 83 67 75
16.1876 25.7337 36.6936 130 116 105
11.5422 27.1189 36.4472 87 29 58
4.35604 25.8488 35.7527 99 31 62
-11.5504 25.3549 34.4282 45 57 75
-13.4679 25.6072 34.2972 58 43 51
-15.393 25.8606 34.1657 79 34 55
-27.5956 25.8395 33.1825 62 107 133
-28.0713 26.0678 33.1652 58 101 131
-31.8287 26.7572 32.9263 135 148 136
-33.1523 27.531 32.8909 160 152 121
34.6172 -29.3179 32.6391 34 29 45
31.6021 -23.4669 32.936 83 75 93
32.2159 -21.482 33.1693 90 83 92
32.7116 -20.3022 33.3185 92 87 93
32.768 -18.2203 33.5156 91 88 99
24.054 25.4088 36.8447 77 75 102
15.4626 25.7069 36.1765 83 67 78
6.33983 26.312 35.4936 94 30 54
3.3106 25.5747 35.1801 94 31 66
-6.39402 25.9384 34.4277 43 35 75
-7.47226 25.6611 34.3148 44 37 75
-8.45035 25.4663 34.2175 43 38 78
-9.7883 25.5782 34.1195 39 49 83
-12.7922 25.5509 33.8737 53 41 51
-17.2862 25.552 33.5098 86 30 59
-21.7582 24.4183 33.0428 63 61 89
-22.121 24.7304 33.0423 68 93 117
-22.3745 25.1278 33.0585 66 105 136
-28.8808 26.0398 32.6159 54 96 126
-29.4992 26.7532 32.6318 47 94 107
-32.1661 28.8663 32.6112 163 146 112
32.1517 -1.09138 34.5851 56 55 95
23.0275 26.2923 36.3916 74 25 52
21.6015 26.2404 36.2705 74 21 48
20.7294 26.6702 36.2394 86 26 51
15.4632 25.7068 35.7201 63 43 68
11.7359 27.2806 35.5627 77 31 54
3.3112 25.5747 34.7167 92 32 69
1.50933 25.2722 34.5415 86 48 97
-1.81604 26.1008 34.3475 75 113 164
-5.72955 25.8824 34.008 44 36 82
-8.91017 25.6894 33.7306 38 47 86
-11.4443 25.4386 33.5005 51 62 76
-13.1499 25.8591 33.4006 59 34 47
-22.0848 24.162 32.5137 64 63 94
-27.5943 25.8393 32.2206 64 106 129
-32.6429 29.0956 32.1121 163 144 111
34.6185 -29.3181 31.675 37 28 45
33.1755 -27.3503 31.7411 45 37 50
32.5797 -21.7941 32.2134 53 52 55
32.903 -20.1101 32.398 57 53 62
32.2423 -7.47383 33.5291 94 92 108
32.0933 -6.31548 33.6256 97 94 107
24.0551 25.4086 35.9415 95 57 80
21.0731 26.3749 35.7872 90 23 51
19.1089 26.458 35.6337 94 29 60
16.535 25.4361 35.3264 75 34 75
12.2754 27.1441 35.1367 83 31 57
4.21294 25.1351 34.2861 92 32 61
-1.15877 26.045 33.9302 73 112 166
-5.83174 25.7991 33.5233 44 40 81
-6.39282 25.9383 33.4903 43 38 78
-7.05764 25.9944 33.4409 42 38 79
-9.47434 25.8289 33.2269 45 67 90
-10.5621 25.5503 33.1115 55 73 92
-17.714 25.2135 32.4924 88 29 57
-22.4825 25.0424 32.0847 60 101 128
-27.7048 25.7538 31.7225 68 110 130
-28.9911 25.9542 31.6357 55 96 118
-29.498 26.7531 31.669 46 92 107
-31.3486 26.5276 31.4958 96 125 123
-31.3774 27.0986 31.547 134 149 142
-32.0803 27.1572 31.4948 144 145 129
-32.6423 29.0956 31.6305 160 144 108
32.5051 -1.39456 33.6564 94 92 105
32.6143 18.045 35.502 35 25 54
22.2887 25.6501 35.3665 88 30 51
21.8529 25.8648 35.3508 82 25 46
16.0002 25.5713 34.839 68 35 62
15.4643 25.7066 34.8074 56 36 52
14.2358 26.4376 34.7749 80 49 59
11.3903 27.5788 34.6474 69 22 48
6.83251 26.7203 34.1893 87 32 61
3.6107 25.8215 33.8379 84 36 80
0.705718 25.7956 33.5952 72 104 162
-2.67562 25.9909 33.334 74 107 154
-3.53852 25.8809 33.2522 74 99 137
-4.60821 25.6043 33.1376 62 74 106
-7.92998 25.8836 32.8892 36 46 70
-11.8008 25.7463 32.5561 61 40 55
-12.3689 25.8865 32.5224 69 32 51
-18.8274 24.9307 31.8979 88 35 64
-21.5385 24.5887 31.6414 56 56 76
-31.5728 26.3564 30.9784 89 119 122
-32.6139 28.5267 31.0974 158 148 113
33.0808 -27.4493 30.7607 34 40 57
32.0945 -6.31564 32.6893 96 90 105
21.6032 26.2402 34.9131 80 41 44
19.8282 26.4837 34.7884 92 30 53
12.1805 27.063 34.2066 82 31 51
6.28755 26.8575 33.6963 82 32 71
3.26027 26.1234 33.3743 59 55 117
1.45958 25.8226 33.1957 70 101 160
-1.61171 26.2659 32.9821 72 107 167
-5.93338 25.7157 32.5699 41 45 92
-6.39162 25.9381 32.5529 37 43 83
-8.49284 26.0231 32.386 48 69 83
-10.3518 25.7176 32.2021 51 51 69
-29.9437 26.4114 30.6364 46 92 112
-32.5297 26.8151 30.4595 146 145 132
-32.8661 28.9258 30.6323 156 146 106
31.986 -26.507 30.2774 42 44 52
32.4477 -23.2927 30.6241 34 32 33
32.9048 -20.1103 30.9674 35 35 40
32.6916 -1.21655 32.7597 97 91 114
33.3002 17.4558 34.5998 43 35 56
32.2731 18.3394 34.5983 37 25 54
24.0569 25.4084 34.5866 105 43 59
23.3722 25.9975 34.5857 90 33 54
21.854 25.8646 34.4456 79 47 38
15.7164 25.3277 33.8795 86 46 68
14.1415 26.3565 33.846 94 79 78
9.05149 26.7979 33.4615 63 31 50
8.41113 26.8535 33.4131 62 38 51
3.81051 25.9858 32.9442 68 72 129
3.36029 26.2055 32.9275 69 86 154
0.153507 25.9335 32.6325 73 110 165
-3.74135 25.7147 32.2849 75 107 173
-7.82517 25.9669 31.9667 56 85 104
-11.7996 25.7461 31.6122 73 33 65
-12.6203 26.2781 31.5944 93 37 72
-21.4643 25.2409 30.7534 63 87 100
-28.0364 25.4969 30.2268 82 118 142
-29.8833 25.2683 30.05 55 96 120
-30.7272 25.8122 30.0314 46 92 119
-31.7681 25.6121 29.9249 57 92 115
-33.2034 28.6711 30.0976 157 146 104
32.9632 -21.4075 30.3702 36 40 63
33.0877 -9.92312 31.4887 53 50 65
32.3382 -7.38277 31.6705 60 56 68
32.1892 -6.22482 31.7697 70 62 82
21.0754 26.3746 33.9765 113 70 58
19.2986 26.6185 33.85 101 30 58
18.7673 26.7536 33.8182 103 31 59
16.3477 25.2736 33.4711 93 33 60
11.6426 27.1993 33.2596 82 31 51
6.19045 26.7757 32.7585 51 74 106
2.51192 26.0965 32.3824 73 111 157
-5.67981 25.3266 31.6164 66 97 146
-6.13805 25.549 31.5992 57 91 135
-10.0373 25.9684 31.3105 57 56 76
-18.1797 25.4388 30.5719 70 39 55
-19.6561 25.4672 30.45 59 47 64
-26.4193 25.5535 29.8873 63 107 134
-28.0358 25.4968 29.7454 86 122 143
-30.3606 25.4972 29.5491 50 93 117
-33.4869 27.2742 29.4566 163 149 114
32.6401 -23.0982 29.7008 53 55 81
32.6207 -20.3991 29.9613 50 49 57
31.2313 1.21974 31.9434 94 87 103
34.3284 16.572 33.698 96 94 117
33.3013 17.4556 33.6966 89 83 113
32.6166 18.0447 33.6956 60 47 75
24.058 25.4082 33.6834 99 29 51
23.7157 25.7028 33.6829 98 30 59
21.8552 25.8645 33.5405 85 42 46
14.7748 26.3016 32.9811 71 51 70
7.72888 26.2826 32.3803 59 57 66
-0.0466423 25.7681 31.6694 80 113 163
-4.25112 25.2989 31.2664 74 111 161
-18.0333 24.959 30.0619 66 41 51
-24.555 25.2119 29.5321 62 88 101
-32.4999 26.2426 28.9569 124 138 137
-33.6535 28.3308 29.0617 163 150 106
32.774 -21.601 29.3796 63 59 69
32.4691 -19.2008 29.5883 55 58 52
32.1713 -6.89472 30.7665 49 44 59
22.2915 25.6497 33.1042 90 33 55
18.5808 26.5927 32.8789 94 35 64
16.0031 25.5709 32.5584 88 58 71
15.4673 25.7063 32.5257 86 67 73
9.80655 25.6542 32.0362 74 35 46
3.96469 25.5191 31.5231 87 118 151
-1.35741 25.8791 31.1029 82 113 168
-2.11599 25.8519 31.0353 81 112 169
-5.78146 25.243 30.6621 74 114 164
-6.69847 25.688 30.6271 74 113 154
-11.5878 25.9135 30.2308 70 38 61
-18.8621 25.4952 29.5673 57 37 51
-19.908 25.8626 29.5138 52 47 57
-21.3897 25.8918 29.3898 51 64 51
-25.8329 25.4109 28.9626 67 98 113
-33.8251 27.0173 28.4358 160 148 116
34.0481 -29.9164 28.1925 35 29 48
32.3536 -26.8214 28.3513 79 76 82
32.6413 -23.0983 28.7428 76 74 84
32.4159 -1.48415 30.8518 51 48 51
35.0142 15.9828 32.7958 105 100 113
34.3295 16.5719 32.7948 104 100 114
33.3025 17.4555 32.7933 99 94 113
32.2755 18.3391 32.7919 46 34 57
24.0592 25.4081 32.7802 107 30 55
12.7809 26.385 31.9048 63 45 57
9.80714 25.6541 31.5766 71 30 44
8.42806 25.6819 31.4605 79 49 48
7.53437 26.119 31.4266 73 50 71
4.01128 26.1497 31.1261 97 125 153
-0.80163 25.7407 30.6712 89 120 166
-3.48671 25.3265 30.3991 84 118 171
-4.45465 25.1321 30.2966 83 118 169
-10.8106 25.9408 29.8287 63 56 80
-13.0812 26.5019 29.6883 91 33 67
-17.5638 24.7332 29.1279 67 39 53
-26.2744 25.0689 28.4106 81 92 81
-29.8509 24.6952 28.0657 74 113 122
-30.5537 24.752 28.0107 57 98 114
-31.5117 25.2105 27.9733 48 88 116
32.3164 -24.7982 28.067 79 74 81
32.9843 -20.7105 28.5302 74 78 93
32.6604 -19.0094 28.6707 65 68 87
32.4342 -7.29171 29.8129 33 31 41
32.0981 -6.31611 29.8804 35 29 35
22.2927 25.6495 32.1993 94 32 59
21.7641 25.7838 32.1668 85 28 52
16.194 25.7328 31.6786 125 88 96
15.0273 25.9227 31.5963 146 102 107
6.79352 26.0923 30.8991 71 49 81
-1.25507 25.9617 30.1881 93 125 162
-2.1148 25.8518 30.1027 90 125 163
-5.98613 25.076 29.69 88 122 160
-6.90373 25.521 29.6546 84 118 153
-8.48923 26.0226 29.5668 84 117 130
-11.5866 25.9134 29.2873 68 45 65
-11.7342 26.3883 29.3216 77 35 62
-18.6076 25.0997 28.5978 56 41 47
-19.4376 25.6364 28.579 48 43 55
-21.4971 25.8068 28.4173 63 89 57
-22.9845 25.8359 28.2912 94 121 73
-23.7849 25.808 28.219 114 129 81
35.0154 15.9826 31.8925 84 77 100
34.3307 16.5717 31.8916 94 85 100
33.3036 17.4553 31.8901 100 88 106
32.6189 18.0444 31.8891 68 50 82
24.0603 25.4079 31.877 104 32 57
21.4215 26.079 31.7136 79 33 51
8.42923 25.6817 30.5398 74 30 46
3.96646 25.5189 30.1339 101 123 154
-0.800439 25.7406 29.7399 97 126 154
-3.3835 25.4095 29.4814 91 124 154
-4.24873 25.2985 29.3948 91 124 154
-10.8094 25.9407 28.8862 66 73 87
-12.3011 26.5286 28.8146 66 38 57
-17.4553 24.8178 28.1939 65 44 56
-20.809 25.7498 27.9942 65 80 68
-26.4621 24.3264 27.3586 148 156 112
-27.0489 24.4686 27.3216 147 151 104
-30.0739 24.5228 27.0629 87 104 112
-31.8486 24.9519 26.9508 51 85 108
32.6237 -20.3995 27.5752 69 64 61
32.3764 -19.297 27.6642 74 72 76
32.2862 -6.13435 28.9788 55 60 77
32.4554 3.01543 29.9131 40 35 36
23.0339 26.2915 31.4239 91 37 52
21.9509 25.9445 31.2939 88 42 52
14.9682 26.463 30.7324 116 72 76
8.17849 26.0636 30.0957 67 43 55
6.4452 26.3929 29.9764 82 88 136
3.7616 26.5332 29.7547 100 122 156
2.66256 26.8088 29.6859 99 124 153
-1.25388 25.9615 29.2566 98 126 153
-6.54678 25.2148 28.7165 92 127 151
-8.94807 26.2456 28.609 75 103 108
-11.5854 25.9132 28.3439 61 55 54
-11.733 26.3882 28.3787 61 45 42
-18.9675 25.4102 27.6447 70 73 63
-19.3285 25.7208 27.6442 80 85 73
-21.3872 25.8915 27.4805 99 113 86
-27.4133 24.7826 26.8395 156 156 110
-30.8891 24.4931 26.505 69 91 97
-32.2996 24.6067 26.3925 54 82 97
-33.1197 24.5772 26.3175 53 80 89
32.4526 -23.2933 26.7901 50 49 64
31.7786 7.41275 29.8362 49 40 57
35.3589 15.6879 30.9898 56 52 71
34.3318 16.5716 30.9884 56 52 68
33.9895 16.8661 30.9879 56 54 63
33.3048 17.4552 30.9869 66 63 79
32.9625 17.7497 30.9864 72 63 86
24.0615 25.4078 30.9737 100 32 58
23.7192 25.7023 30.9733 93 36 64
20.0836 26.1069 30.6926 124 117 67
10.0609 25.2723 29.7218 42 52 49
8.43041 25.6816 29.619 48 67 67
5.60404 26.2846 29.43 88 111 154
4.26522 25.7655 29.2591 92 115 156
4.11279 26.2315 29.2927 94 116 156
-0.900218 25.6577 28.7913 95 119 153
-5.11488 25.1872 28.371 90 123 154
-14.8128 25.7188 27.5671 79 52 45
-17.2395 24.9871 27.2784 62 46 39
-17.8147 25.128 27.2418 60 59 52
-26.6826 24.1544 26.359 165 164 117
-33.6002 24.807 25.8132 44 67 81
32.7777 -21.6015 26.512 51 47 67
32.1873 -19.489 26.6745 49 46 53
33.0719 -7.32363 27.9918 72 79 87
23.035 26.2913 30.5207 80 57 49
21.4232 26.0788 30.3556 95 100 41
11.5906 24.7823 29.3483 77 56 67
9.42116 25.3267 29.2106 56 69 77
7.34144 25.955 29.0894 69 91 122
-1.25269 25.9614 28.3251 91 119 162
-8.48683 26.0223 27.6873 90 113 114
-15.1309 25.4661 27.0393 107 86 68
-18.6431 25.664 26.7468 117 115 80
-19.7963 25.9467 26.6729 92 87 63
-27.301 24.8682 25.8951 172 165 119
-30.8879 24.493 25.5376 85 96 100
-31.7054 24.4634 25.4618 63 82 97
-32.5244 24.4338 25.3859 49 74 88
-34.3083 24.864 25.2709 48 63 68
32.5495 -23.1961 25.8501 53 55 67
32.5304 -20.496 26.1251 48 47 63
32.8292 -6.25791 27.611 85 83 88
32.5866 -5.19465 27.6982 83 81 93
31.5769 6.59614 28.816 38 47 61
20.0848 26.1068 29.7858 136 117 66
14.8747 26.3819 29.3472 121 75 86
11.1463 24.9999 28.8716 69 79 87
10.1591 25.3539 28.8194 75 87 81
8.52917 25.7632 28.7153 105 108 91
5.30927 26.0385 28.4551 87 119 119
4.46457 25.9297 28.3682 86 120 126
4.11397 26.2313 28.3677 85 121 132
3.96166 26.6968 28.4018 84 119 134
2.26567 26.4803 28.2277 82 119 138
-0.899027 25.6575 27.8598 84 117 149
