ply
format ascii 1.0
element vertex 1352
property float x
property float y
property float z
property uchar red
property uchar green
property uchar blue
end_header
-15.6798 -25.576 88.2576 21 59 16
-11.7312 -26.4246 88.2524 23 51 17
-10.7556 -25.9397 88.252 23 46 20
-8.87276 -25.4539 88.2508 19 29 28
-6.60937 -25.4538 88.2484 14 19 25
-5.27066 -25.5752 88.2469 15 18 25
-4.38505 -25.6966 88.2458 16 18 28
-3.69667 -27.0287 88.2433 18 19 29
-3.14655 -26.4239 88.2435 18 18 29
2.46534 -25.3316 88.2393 20 19 26
13.7373 -25.5737 88.2274 18 18 30
22.8926 -25.0867 88.2186 20 18 28
23.407 -26.9057 88.2156 19 18 29
27.9481 -26.7845 88.2111 19 20 29
31.1643 -26.5423 88.2081 32 41 57
-33.1905 -24.2378 87.8237 20 56 103
-32.27 -24.1156 87.8228 20 57 101
-31.3755 -24.2377 87.8218 19 56 100
-30.468 -24.2376 87.8209 20 55 105
-23.3439 -25.3337 87.813 20 60 91
-22.4689 -25.5767 87.812 21 59 94
-21.08 -25.3336 87.8107 23 58 85
-20.1586 -25.2118 87.8098 20 51 63
-19.2688 -25.3334 87.8088 21 52 43
-18.3957 -25.5764 87.8078 17 53 15
-17.4577 -25.3333 87.807 20 60 16
-16.1328 -25.5762 87.8055 22 62 18
-15.2616 -25.8189 87.8045 23 61 19
-14.3569 -25.8189 87.8035 23 56 20
-13.4696 -25.9401 87.8026 23 50 25
-12.1305 -26.0613 87.8011 22 37 22
-10.2494 -25.5757 87.7994 20 26 20
-9.30754 -25.3326 87.7986 19 20 25
-7.4964 -25.3325 87.7967 17 18 30
-6.09977 -25.0891 87.7954 19 20 30
-5.23246 -25.3323 87.7944 17 19 28
-4.3269 -25.3323 87.7935 17 19 31
-3.08761 -26.0606 87.7918 19 18 29
-1.27903 -26.0605 87.79 20 22 33
-0.374744 -26.0604 87.789 20 21 30
0.570902 -25.8177 87.7882 18 19 30
1.55931 -25.3318 87.7874 20 23 30
2.48604 -25.2101 87.7865 27 28 32
3.80176 -25.4531 87.7851 21 19 29
4.7505 -25.2099 87.7842 17 17 23
5.59059 -25.5745 87.7832 14 19 19
6.45156 -25.8173 87.7822 16 20 24
7.85345 -25.5743 87.7808 18 19 30
8.82653 -25.2096 87.78 18 19 31
11.5439 -25.2094 87.7772 21 18 29
12.8553 -25.4524 87.7757 22 18 31
13.7607 -25.4523 87.7748 19 17 30
14.7141 -25.2091 87.774 20 20 30
15.6199 -25.2091 87.773 18 28 38
16.5257 -25.209 87.7721 64 72 68
17.4562 -25.0873 87.7712 29 24 26
18.7902 -25.2088 87.7698 20 19 27
19.6455 -25.4519 87.7688 19 22 32
20.5255 -25.5734 87.7678 24 23 35
21.8317 -25.8161 87.7663 21 18 28
28.508 -26.3005 87.7592 19 21 30
29.8638 -26.3004 87.7578 23 21 38
30.7399 -26.4215 87.7569 21 26 46
33.4563 -22.5176 87.7561 71 84 55
-34.8202 -22.4001 87.3709 20 55 98
-34.4899 -23.6268 87.371 20 56 99
-24.2944 -25.6984 87.3614 22 57 92
-12.5303 -25.6975 87.3493 19 26 24
-11.6076 -25.576 87.3483 17 21 26
-8.85521 -25.3328 87.3453 18 21 29
-8.34662 -24.9676 87.3447 18 20 29
-3.87458 -25.3324 87.3402 20 19 34
-2.59607 -25.8181 87.3391 19 19 33
-1.21872 -25.6967 87.3376 30 33 48
11.59 -24.9661 87.3242 21 20 25
22.3353 -25.5734 87.3134 21 18 32
23.2925 -25.3303 87.3123 20 18 30
31.2191 -26.3005 87.3045 34 43 55
-34.0738 -23.9939 86.9168 20 58 101
-33.1659 -23.9938 86.9159 20 57 101
-32.2709 -24.1159 86.9151 20 58 99
-31.3632 -24.1159 86.9142 19 54 95
-30.0017 -24.1158 86.9128 19 54 94
-29.0527 -23.7489 86.9113 21 56 96
-24.2949 -25.6986 86.9089 24 58 93
-23.3147 -25.0907 86.9071 24 60 91
-22.424 -25.2123 86.9063 22 57 85
-21.5337 -25.3339 86.9056 24 58 80
-18.3804 -25.4551 86.9025 22 62 17
-17.4421 -25.2119 86.9012 22 61 17
-16.1002 -25.3335 86.9 24 56 22
-15.2286 -25.5764 86.8994 22 40 21
-14.3235 -25.5763 86.8985 20 30 18
-13.4183 -25.5763 86.8976 17 23 20
-12.5308 -25.6977 86.8968 18 21 25
-11.1734 -25.6976 86.8954 19 21 31
-10.2322 -25.4545 86.8941 20 22 31
-9.29009 -25.2113 86.8929 20 23 30
-8.3657 -25.0896 86.8917 18 22 28
-7.47852 -25.2112 86.891 20 22 30
-6.10071 -25.0894 86.8894 20 20 29
-5.21406 -25.211 86.8887 19 20 31
-4.30827 -25.2109 86.8877 20 22 33
-3.48152 -25.697 86.8875 20 19 30
-2.08398 -25.4539 86.8857 20 29 38
-1.19891 -25.5753 86.885 61 68 69
-0.29377 -25.5753 86.8841 30 25 28
1.60028 -25.0888 86.8815 36 51 60
2.50628 -25.0887 86.8806 68 76 73
3.8223 -25.3319 86.8795 20 20 31
4.77128 -25.0886 86.8783 19 22 37
5.61155 -25.4533 86.8778 25 28 46
6.4948 -25.5747 86.8771 25 25 36
7.91981 -25.21 86.8752 22 21 30
10.7065 -24.8446 86.8718 19 22 28
11.6129 -24.8445 86.8709 20 22 28
12.9253 -25.0879 86.8699 19 19 26
13.7836 -25.3312 86.8693 18 21 28
14.7373 -25.0878 86.868 20 24 27
15.619 -25.2094 86.8672 19 36 43
16.5492 -25.0877 86.8661 89 105 94
17.4552 -25.0876 86.8652 31 32 33
19.695 -25.2091 86.8631 28 48 51
20.6008 -25.209 86.8621 73 83 87
21.4809 -25.3306 86.8614 23 17 26
23.8234 -24.9653 86.8585 19 17 27
28.5616 -26.0585 86.855 22 18 34
29.4659 -26.0584 86.8541 21 20 31
30.7945 -26.1795 86.8529 21 30 50
33.4554 -22.5179 86.8456 74 83 54
-34.8087 -22.2774 86.4599 20 57 100
-30.4426 -23.9937 86.4591 19 52 78
-28.6129 -23.8714 86.457 22 57 97
-28.2007 -24.2379 86.4573 22 58 96
-27.7188 -23.9935 86.4563 23 60 95
-26.4431 -24.7257 86.4566 23 60 93
-25.2295 -25.9415 86.4579 23 59 93
-20.6129 -25.2123 86.4516 21 57 30
-19.7071 -25.2123 86.4507 21 59 21
9.32359 -24.9666 86.4203 23 22 30
12.0422 -24.9664 86.4175 24 20 31
18.3608 -25.0877 86.4113 41 53 48
22.4119 -25.209 86.4074 19 17 21
27.3869 -27.2683 86.4066 19 18 31
31.2461 -26.1796 86.4004 39 51 68
-27.7333 -24.1159 86.0027 25 60 90
-20.1604 -25.2124 85.9982 19 60 18
-19.2546 -25.2124 85.9973 23 64 19
-18.3813 -25.4554 85.9971 25 62 22
-17.4266 -25.0906 85.9951 22 55 26
-16.5206 -25.0905 85.9941 21 51 29
-15.1616 -25.0904 85.9927 17 31 27
-14.2728 -25.212 85.9922 19 23 30
-13.367 -25.2119 85.9913 22 22 31
-12.4789 -25.3335 85.9907 24 23 32
-11.1205 -25.3334 85.9893 22 24 33
-10.1968 -25.2117 85.988 22 24 39
-9.27263 -25.0899 85.9867 26 28 41
-7.46063 -25.0898 85.9848 21 25 33
-6.10164 -25.0897 85.9834 20 26 33
-3.44295 -25.4543 85.9818 22 23 31
-2.51761 -25.3327 85.9805 15 26 32
-1.15926 -25.3326 85.9791 91 110 101
-0.274199 -25.454 85.9785 27 28 19
2.50535 -25.089 85.9746 85 97 85
3.84286 -25.2106 85.9736 19 21 34
5.65443 -25.2104 85.9717 80 91 91
6.53808 -25.332 85.9712 46 44 54
7.48834 -25.0887 85.9695 20 19 29
8.93811 -24.6012 85.9665 19 24 29
9.82204 -24.7231 85.966 24 29 34
10.7287 -24.723 85.965 22 25 41
11.6353 -24.723 85.9641 26 27 41
12.5184 -24.8447 85.9636 26 26 40
14.7604 -24.9663 85.9616 55 63 51
15.6666 -24.9663 85.9607 22 34 43
16.5728 -24.9662 85.9598 82 106 100
17.479 -24.9661 85.9588 53 76 53
20.5999 -25.2093 85.9563 101 113 105
21.5056 -25.2092 85.9554 42 37 36
23.3955 -24.8439 85.9524 19 18 30
28.5607 -26.0588 85.9507 21 22 32
29.465 -26.0587 85.9498 24 22 30
30.7936 -26.1798 85.9488 21 30 51
33.5117 -22.2722 85.9342 72 83 55
-33.1928 -24.2386 85.5549 16 47 38
-32.2853 -24.2385 85.554 20 51 55
-31.391 -24.3605 85.5536 24 53 65
-30.4703 -24.2384 85.5522 18 44 44
-28.2155 -24.3603 85.5503 23 56 73
-27.3082 -24.3602 85.5494 21 55 78
-26.4297 -24.6041 85.5494 23 59 97
-25.172 -25.4561 85.5514 23 59 99
-24.2815 -25.5776 85.551 25 60 103
-23.3462 -25.3345 85.5491 27 62 74
-22.4712 -25.5774 85.5491 17 53 48
-21.5506 -25.4558 85.5477 20 57 41
-8.8201 -25.0901 85.5332 35 37 40
-8.34848 -24.9683 85.5323 22 23 25
-6.53606 -24.9681 85.5304 26 29 40
-5.61058 -24.8463 85.529 38 45 61
-5.21546 -25.2114 85.53 61 69 84
-4.70416 -24.8462 85.528 42 45 48
-4.29011 -25.0897 85.5286 21 21 14
1.1042 -25.3326 85.524 34 62 81
4.31688 -25.0891 85.5197 19 38 38
13.8299 -25.0883 85.5099 56 77 102
17.882 -25.2097 85.5062 81 106 105
18.3599 -25.088 85.5053 90 107 105
19.2659 -25.0879 85.5044 50 67 65
22.411 -25.2093 85.5016 21 17 31
24.3542 -24.6002 85.4972 18 17 31
27.123 -26.4225 85.5015 20 20 31
27.4129 -27.1479 85.504 19 19 30
31.2731 -26.0587 85.4958 35 45 62
32.1188 -24.3556 85.4883 46 61 58
-34.8474 -22.6466 85.0953 20 57 86
-34.4922 -23.6276 85.0996 21 58 80
-34.0882 -24.1167 85.1015 18 54 65
-29.5633 -24.2385 85.0975 18 49 41
23.7692 -25.2094 85.0473 19 19 29
28.587 -25.9378 85.0458 21 21 33
29.4915 -25.9377 85.0449 21 20 29
-33.2065 -24.361 84.6482 18 54 58
-32.2992 -24.3609 84.6472 16 49 29
-31.392 -24.3608 84.6463 19 54 30
-30.4713 -24.2387 84.6447 17 49 29
-29.0963 -24.1164 84.6426 19 53 41
-28.2304 -24.4826 84.6437 22 58 48
-27.3233 -24.4825 84.6428 19 56 44
-26.445 -24.7263 84.6433 19 53 71
-25.1436 -25.2133 84.6447 23 57 80
-24.2676 -25.4563 84.6452 23 52 74
-23.3471 -25.3348 84.6435 21 53 49
-22.4568 -25.4562 84.6433 18 51 23
-21.0832 -25.3346 84.6412 19 58 13
-20.1776 -25.3345 84.6403 22 62 16
-19.256 -25.2128 84.6386 20 59 17
-18.3665 -25.3344 84.6384 20 53 18
-17.4445 -25.2127 84.6368 18 47 20
-16.522 -25.091 84.6351 20 49 28
-14.2398 -24.969 84.6321 13 22 20
-12.445 -25.0906 84.6309 18 18 28
-11.086 -25.0905 84.6295 17 19 25
-10.18 -25.0905 84.6286 26 46 57
-7.46203 -25.0903 84.6258 68 88 89
-6.537 -24.9684 84.6242 61 74 61
-2.47904 -25.0899 84.6207 61 83 76
-1.12004 -25.0898 84.6193 89 106 96
0.2596 -24.9679 84.6172 41 58 55
2.52513 -24.9677 84.6149 89 102 88
5.65303 -25.2109 84.613 43 50 36
6.53669 -25.3325 84.6128 22 29 46
8.93671 -24.6017 84.6062 45 55 81
9.82064 -24.7236 84.606 68 87 89
10.7273 -24.7235 84.6051 43 60 59
11.6339 -24.7234 84.6041 79 93 91
12.517 -24.8452 84.6039 40 55 51
16.9999 -25.0884 84.6007 87 101 90
17.8811 -25.21 84.6005 44 57 55
18.8119 -25.0882 84.5988 84 96 93
20.5985 -25.2098 84.5977 94 109 104
21.4786 -25.3313 84.5975 23 20 12
28.5866 -25.9379 84.5936 21 19 32
29.4911 -25.9379 84.5927 22 20 31
30.82 -26.059 84.592 24 32 58
-34.8732 -22.8926 84.1866 25 55 59
-34.4932 -23.6279 84.191 25 56 60
-34.1143 -24.3612 84.1954 24 57 60
-15.6165 -25.091 84.1812 17 51 45
-15.1465 -24.9692 84.1799 23 51 44
-13.7698 -24.8474 84.1777 15 19 25
-13.3515 -25.0909 84.1789 18 18 29
-12.4278 -24.969 84.1771 19 18 27
-9.74577 -25.2122 84.176 47 67 63
-9.25609 -24.9688 84.1739 92 115 113
-8.82149 -25.0905 84.1742 83 97 94
-8.34988 -24.9687 84.1729 42 54 55
-5.61198 -24.8467 84.1693 58 66 66
-5.1975 -25.0902 84.1705 60 69 79
-4.70555 -24.8467 84.1684 49 53 59
-4.2915 -25.0902 84.1696 62 70 68
-3.81882 -24.9684 84.1683 48 67 67
-3.38551 -25.0901 84.1686 43 62 60
-2.91261 -24.9683 84.1674 73 93 85
-1.10019 -24.9682 84.1655 89 104 98
1.1445 -25.0898 84.164 56 71 65
2.95649 -25.0896 84.1621 56 66 50
3.86249 -25.0895 84.1612 17 27 46
4.31548 -25.0895 84.1607 35 56 64
7.03348 -25.0893 84.1579 60 78 85
14.2815 -25.0887 84.1505 46 46 48
15.2116 -24.9669 84.1487 25 28 43
15.6405 -25.0886 84.1491 18 26 38
16.571 -24.9668 84.1473 70 89 91
19.6922 -25.21 84.1457 21 35 35
22.4096 -25.2098 84.1429 20 20 23
22.9925 -24.6007 84.1383 19 19 26
23.7682 -25.2097 84.1415 19 19 27
24.2211 -25.2096 84.1411 19 19 27
27.2563 -25.8169 84.1419 20 19 27
27.4924 -26.7859 84.148 20 19 29
29.9153 -26.0593 84.1407 19 20 36
31.2717 -26.0592 84.1394 40 51 70
31.9203 -25.209 84.1331 50 63 61
-33.2075 -24.3613 83.7409 17 52 32
-32.3002 -24.3612 83.7399 20 53 37
-31.3929 -24.3611 83.739 14 45 19
-30.4722 -24.239 83.7372 22 57 22
-29.0972 -24.1167 83.7348 17 52 19
-28.2174 -24.3609 83.7357 20 58 26
-27.3243 -24.4828 83.7357 21 60 30
-26.4459 -24.7267 83.7366 19 53 49
-24.2388 -25.2135 83.738 19 48 34
-22.4425 -25.335 83.737 21 57 17
-21.5524 -25.4564 83.737 21 60 17
-20.1944 -25.4563 83.7356 22 58 14
-19.289 -25.4563 83.7347 21 50 14
-18.3837 -25.4562 83.7337 20 44 17
-17.4619 -25.3346 83.7319 16 38 20
-16.5396 -25.2129 83.7301 18 44 47
-14.2235 -24.8475 83.725 14 28 27
-13.3345 -24.9692 83.725 17 19 27
-12.4283 -24.9692 83.724 19 19 26
-11.087 -25.0908 83.7235 19 19 26
-10.181 -25.0908 83.7226 15 22 36
-9.27496 -25.0907 83.7217 82 104 110
-8.36896 -25.0906 83.7208 55 75 80
-7.46296 -25.0906 83.7198 68 89 90
-6.53793 -24.9687 83.718 82 104 81
-4.27239 -24.9685 83.7156 58 63 76
-2.45997 -24.9684 83.7138 87 104 97
-1.55375 -24.9683 83.7129 41 55 52
-0.173885 -24.8465 83.7105 29 46 37
1.63897 -24.8463 83.7087 29 46 38
2.52419 -24.968 83.7087 90 105 95
4.76802 -25.0896 83.7073 81 110 115
5.6521 -25.2112 83.7072 72 88 88
6.55788 -25.2111 83.7063 31 45 58
7.96147 -24.9676 83.7031 88 110 91
8.91307 -24.7239 83.7003 40 45 40
9.7968 -24.8457 83.7003 59 82 84
10.7032 -24.8456 83.6994 56 79 78
11.633 -24.7237 83.6975 81 104 98
12.5161 -24.8455 83.6975 55 72 69
14.734 -25.0889 83.697 25 20 23
16.999 -25.0887 83.6947 79 93 87
17.8802 -25.2103 83.6947 36 46 49
18.811 -25.0885 83.6928 83 95 89
20.5975 -25.2101 83.6919 85 102 118
21.4777 -25.3316 83.6919 51 58 60
22.992 -24.6009 83.6849 20 19 27
24.7 -25.0881 83.6868 19 19 28
25.8988 -25.8171 83.6909 19 19 28
28.5856 -25.9382 83.6891 20 20 33
29.4901 -25.9382 83.6881 21 20 32
30.8469 -25.9381 83.6867 22 33 54
31.948 -25.0875 83.6793 48 64 60
-34.8617 -22.7701 83.2757 13 49 13
-34.5066 -23.7506 83.2835 16 52 14
-34.1152 -24.3615 83.2882 17 56 16
-25.5543 -24.8486 83.2834 22 53 40
-23.3184 -25.0919 83.2831 16 49 20
-15.6174 -25.0913 83.2752 18 43 38
-15.1474 -24.9695 83.2737 20 44 42
-12.0112 -25.2127 83.2725 18 18 27
-5.61291 -24.847 83.2629 74 88 77
-5.19843 -25.0905 83.2645 46 56 50
-3.81975 -24.9687 83.2621 35 56 73
2.95556 -25.0899 83.2561 69 79 69
3.86156 -25.0898 83.2552 27 31 39
13.8275 -25.0891 83.2449 87 108 126
15.2107 -24.9672 83.2425 47 60 79
15.6395 -25.0889 83.2431 41 50 61
16.57 -24.9671 83.2411 52 68 60
19.6913 -25.2103 83.2399 19 16 20
22.4345 -25.0884 83.2361 18 15 23
23.4189 -24.723 83.2321 20 18 28
23.7935 -25.0883 83.2347 20 17 29
27.2824 -25.6958 83.2362 21 18 34
27.5995 -26.3021 83.2408 20 17 35
-33.2211 -24.4836 82.8347 19 61 11
-32.3141 -24.4835 82.8338 19 61 12
-31.3938 -24.3614 82.8317 18 60 10
-30.4865 -24.3614 82.8308 17 59 6
-29.1119 -24.2392 82.8283 17 58 10
-28.2183 -24.3612 82.8285 17 58 11
-27.3252 -24.4831 82.8287 18 59 13
-26.4325 -24.605 82.8289 20 59 20
-25.5402 -24.7269 82.8291 18 51 25
-24.21 -24.9704 82.8299 16 46 15
-22.4434 -25.3353 82.8315 18 59 16
-21.5688 -25.5783 82.8328 20 59 16
-20.2111 -25.5782 82.8314 21 53 21
-19.306 -25.5781 82.8305 15 43 14
-18.4008 -25.578 82.8295 17 42 14
-17.4628 -25.3349 82.8263 15 34 18
-16.5406 -25.2132 82.8243 14 37 16
-14.2072 -24.726 82.8174 19 31 36
-13.3005 -24.7259 82.8165 17 21 26
-12.3939 -24.7259 82.8156 19 19 27
-11.5409 -25.0912 82.818 19 18 28
-9.27589 -25.091 82.8157 37 59 61
-8.36989 -25.0909 82.8148 91 119 115
-7.46389 -25.0909 82.8138 58 73 70
-6.53886 -24.969 82.8118 73 96 85
-3.36711 -24.9688 82.8085 53 80 88
-2.44089 -24.8469 82.8064 85 106 96
-1.55468 -24.9686 82.8066 36 51 42
-0.174817 -24.8468 82.8041 49 64 57
1.63803 -24.8466 82.8022 69 89 81
2.52326 -24.9683 82.8024 89 103 92
4.76709 -25.0899 82.8013 62 81 88
5.67309 -25.0899 82.8003 72 80 78
7.52981 -24.8462 82.7962 75 93 95
8.91214 -24.7242 82.7936 22 19 21
9.79587 -24.846 82.7939 44 65 70
10.7023 -24.8459 82.7929 92 114 107
11.6321 -24.724 82.7908 81 95 86
12.5151 -24.8458 82.7911 70 76 73
13.8509 -24.9675 82.7908 73 89 107
15.6391 -25.0891 82.7901 41 48 61
16.5451 -25.089 82.7892 33 43 48
17.8545 -25.3322 82.79 22 26 27
18.8101 -25.0888 82.7868 30 33 34
20.6221 -25.0887 82.785 26 26 33
22.4599 -24.9668 82.782 18 17 25
24.6726 -25.21 82.7819 18 18 27
25.9245 -25.6961 82.7851 19 19 28
26.8563 -25.5745 82.783 20 20 31
27.7073 -25.8173 82.7844 19 20 34
28.6393 -25.6959 82.7823 21 20 35
29.5442 -25.6958 82.7814 21 19 32
30.9016 -25.6957 82.78 21 31 54
-34.5822 -24.4838 82.3826 20 61 14
-23.7723 -25.0923 82.3776 14 48 12
-15.6183 -25.0916 82.3692 17 43 16
-15.1313 -24.8481 82.3663 17 41 20
-11.9766 -24.9696 82.3642 20 19 30
-10.6895 -25.456 82.3678 19 19 29
-10.1642 -24.9695 82.3624 19 19 28
-5.61384 -24.8473 82.3565 82 95 91
-5.21872 -25.2125 82.3597 32 42 36
-4.70742 -24.8473 82.3556 28 45 51
-4.29337 -25.0908 82.3576 63 85 94
2.95463 -25.0902 82.3501 66 73 63
3.86063 -25.0901 82.3492 20 20 29
6.55649 -25.2116 82.3476 15 21 21
19.2626 -25.089 82.3334 19 18 31
21.5019 -25.2104 82.3323 19 18 31
23.7926 -25.0886 82.3287 20 20 28
25.2312 -24.7231 82.3235 20 21 25
31.4936 -25.088 82.3208 39 49 70
32.1438 -24.2346 82.3115 48 60 57
32.9954 -22.5194 82.2934 63 76 55
-34.2418 -25.5795 81.9407 22 63 15
-33.3239 -25.4579 81.9384 21 63 14
-32.3927 -25.2147 81.9348 20 64 13
-31.0075 -24.9712 81.9307 19 61 13
-30.1013 -24.9711 81.9298 20 61 14
-29.1677 -24.7275 81.9261 19 62 14
-28.275 -24.8492 81.9266 19 61 12
-27.3685 -24.8492 81.9256 21 63 13
-26.4765 -24.9709 81.926 21 63 14
-24.2406 -25.2141 81.9264 18 51 16
-23.3499 -25.3357 81.9268 16 50 11
-22.4749 -25.5786 81.9286 21 57 16
-21.1328 -25.7 81.9285 20 46 14
-20.2278 -25.6999 81.9276 16 45 10
-19.3069 -25.5784 81.9253 18 48 13
-18.4018 -25.5783 81.9244 14 43 10
-17.4637 -25.3352 81.9208 13 47 6
-16.1221 -25.4566 81.9207 16 50 12
-14.2254 -24.8482 81.9121 19 34 22
-13.3015 -24.7262 81.9098 15 19 24
-12.3772 -24.6042 81.9076 18 20 29
-11.0169 -24.6041 81.9062 19 19 29
-9.27682 -25.0913 81.9097 15 25 39
-8.38942 -25.2129 81.9101 84 105 103
-7.48364 -25.2128 81.9092 49 61 56
-3.36804 -24.9691 81.9023 62 75 75
-2.44182 -24.8472 81.9 73 81 85
-1.55561 -24.9689 81.9004 30 36 44
-0.155203 -24.7252 81.8963 40 48 60
1.6371 -24.8469 81.8958 37 43 55
2.52233 -24.9686 81.8962 38 45 53
4.74445 -25.2119 81.8966 39 57 68
5.65024 -25.2118 81.8957 82 91 89
6.55602 -25.2117 81.8947 16 18 20
7.50651 -24.9682 81.8911 54 67 69
8.91121 -24.7245 81.887 21 19 20
9.79493 -24.8463 81.8874 28 37 54
10.6782 -24.968 81.8878 58 66 77
11.6311 -24.7243 81.8842 24 31 38
12.5142 -24.8461 81.8846 31 35 45
15.6624 -24.9676 81.8827 18 19 28
16.5441 -25.0893 81.8832 18 18 26
17.8535 -25.3325 81.8845 20 18 34
18.7591 -25.3325 81.8835 20 19 33
19.6395 -25.4539 81.8839 19 19 30
20.5702 -25.3323 81.8817 18 18 29
21.4758 -25.3322 81.8807 20 19 30
22.8601 -25.2105 81.878 21 18 30
24.6981 -25.0887 81.8748 18 18 26
25.6308 -24.9669 81.8725 18 18 26
26.4296 -25.4533 81.877 19 19 30
27.7877 -25.4532 81.8756 19 18 30
28.6657 -25.5747 81.876 20 20 31
29.5984 -25.4531 81.8737 21 21 29
30.5037 -25.453 81.8728 15 18 45
-31.9794 -25.5795 81.4858 21 63 10
-30.1556 -25.4579 81.4825 20 63 14
-29.2366 -25.3363 81.4801 20 64 13
-28.3171 -25.2146 81.4777 18 63 10
-27.4114 -25.2145 81.4768 18 62 9
-26.5056 -25.2144 81.4758 20 62 11
-25.5853 -25.0927 81.4735 20 58 14
-15.6362 -25.2136 81.4647 19 50 15
-15.1493 -24.9701 81.4613 19 48 13
-11.5423 -25.0916 81.459 18 18 29
-10.7085 -25.5779 81.4639 19 18 31
-6.55929 -25.0913 81.4539 35 41 43
-5.63403 -24.9694 81.4515 52 55 52
-5.21965 -25.2128 81.454 24 23 21
-4.72782 -24.9693 81.4506 23 27 26
-4.2943 -25.0911 81.4516 38 40 37
2.9537 -25.0905 81.4441 23 22 38
3.8597 -25.0905 81.4432 20 22 32
14.7317 -25.0896 81.432 18 18 29
15.6377 -25.0895 81.4311 19 19 26
23.3386 -25.089 81.4232 19 19 31
31.6048 -24.601 81.4089 43 56 77
32.1146 -24.357 81.4055 47 62 60
-2.00965 -24.9693 80.9947 11 26 46
-1.08312 -24.8474 80.9922 9 25 54
-0.135568 -24.6036 80.9881 12 24 43
1.63617 -24.8472 80.9894 21 23 35
2.54259 -24.8472 80.9885 23 24 35
4.72183 -25.3338 80.9924 29 33 54
5.6274 -25.3338 80.9915 45 47 63
6.55509 -25.212 80.989 17 16 26
9.794 -24.8466 80.981 22 23 27
11.6069 -24.8465 80.9791 21 19 32
12.9902 -24.7245 80.9762 20 20 31
13.8014 -25.2115 80.9815 19 19 30
14.7071 -25.2114 80.9806 18 17 31
15.5887 -25.333 80.9812 19 19 30
16.8979 -25.5759 80.983 19 18 31
17.7783 -25.6973 80.9836 18 19 33
18.7082 -25.5758 80.9811 20 19 34
20.5185 -25.5756 80.9792 20 21 25
21.4749 -25.3326 80.9752 18 20 23
22.8332 -25.3324 80.9738 16 20 21
23.765 -25.2107 80.9713 16 21 23
24.6708 -25.2107 80.9703 15 22 23
25.6032 -25.0889 80.9678 15 22 23
26.4287 -25.4536 80.9716 16 21 22
27.8139 -25.3321 80.9687 18 20 22
28.6921 -25.4535 80.9693 19 21 23
29.625 -25.3319 80.9668 20 19 21
30.5862 -25.0885 80.9627 18 22 42
-34.2806 -25.9441 80.5879 19 57 12
-32.0193 -25.944 80.5856 18 54 13
-31.1148 -25.9439 80.5847 19 60 12
-27.4546 -25.5795 80.576 21 65 12
-26.068 -25.3364 80.5713 20 62 8
-25.1625 -25.3363 80.5703 20 63 11
-24.242 -25.2146 80.5677 22 58 12
-23.3513 -25.3362 80.5685 17 45 12
-22.4457 -25.3361 80.5675 19 43 13
-21.5402 -25.336 80.5666 12 41 6
-20.1818 -25.3359 80.5652 18 58 9
-19.2763 -25.3358 80.5643 17 59 8
-18.3707 -25.3358 80.5633 17 62 7
-17.4487 -25.214 80.5607 21 67 9
-16.5262 -25.0923 80.5581 19 64 10
-14.244 -24.9704 80.5542 14 28 16
-12.014 -25.2136 80.5552 18 19 29
-10.2206 -25.3351 80.555 19 17 33
-9.33335 -25.4565 80.5557 19 19 30
-8.42799 -25.4565 80.5548 23 22 31
-7.52264 -25.4564 80.5538 22 22 33
-6.14548 -25.3348 80.5508 19 23 31
-5.67346 -25.2131 80.5486 17 23 27
-4.74822 -25.0914 80.546 14 24 23
-3.8619 -25.213 80.5468 12 27 27
-3.36944 -24.9695 80.543 11 28 33
-2.95611 -25.2129 80.5458 11 32 45
2.93149 -25.2125 80.5398 20 20 28
3.42716 -24.969 80.536 19 19 28
3.83727 -25.2124 80.5389 20 18 28
7.48275 -25.0905 80.5335 19 19 30
8.38875 -25.0904 80.5325 18 20 29
8.86442 -24.9686 80.5304 18 21 28
10.2698 -24.7249 80.5257 23 23 31
10.6306 -25.2119 80.5319 20 20 31
11.9893 -25.2118 80.5305 19 18 32
12.4657 -25.0901 80.5284 20 19 32
19.1603 -25.5759 80.5281 18 21 34
31.0666 -24.9669 80.5076 30 44 62
32.1137 -24.3573 80.4982 45 61 54
32.7659 -23.5016 80.486 68 83 57
33.4488 -22.52 80.472 72 84 49
-33.8288 -25.9442 80.1352 21 58 16
-33.3892 -26.0655 80.1365 19 54 16
-32.9371 -26.0655 80.136 18 50 16
-30.6764 -26.0653 80.1337 21 62 14
-29.7856 -26.1865 80.1346 17 54 10
-28.8952 -26.3075 80.1354 22 60 14
-28.4018 -25.9438 80.1296 23 61 15
-15.6376 -25.2141 80.106 20 65 12
-15.1507 -24.9706 80.102 24 63 17
-13.8087 -25.0923 80.1024 14 22 23
-11.5794 -25.3354 80.1036 19 19 30
16.7989 -26.0616 80.0849 17 20 22
30.1599 -24.9671 80.0554 14 30 37
-34.269 -25.8231 79.6815 20 54 13
-33.377 -25.9444 79.6825 19 49 17
-32.4725 -25.9443 79.6816 17 47 19
-30.2515 -26.3078 79.6848 17 54 11
-29.3476 -26.3077 79.6839 19 54 13
-28.4161 -26.0653 79.6793 23 54 18
-27.4837 -25.8226 79.6746 17 50 13
-26.069 -25.3367 79.6657 21 56 17
-25.1488 -25.2149 79.6629 20 59 17
-24.243 -25.2149 79.6619 23 59 20
-23.3523 -25.3365 79.6629 18 42 16
-22.4467 -25.3364 79.662 13 36 12
-21.5411 -25.3363 79.661 14 51 15
-20.1828 -25.3362 79.6596 19 62 15
-19.2612 -25.2145 79.6568 20 63 14
-18.3391 -25.0928 79.654 22 66 13
-17.4331 -25.0927 79.6531 18 64 11
-16.5105 -24.9709 79.6503 20 67 12
-13.3736 -25.214 79.6508 17 20 27
-12.0326 -25.3356 79.6513 19 19 28
-10.2215 -25.3354 79.6494 16 20 26
-9.35264 -25.5784 79.6522 16 20 29
-8.4475 -25.5783 79.6513 13 22 30
-7.52357 -25.4567 79.6485 12 26 33
-6.14641 -25.3351 79.6452 10 38 58
-5.26018 -25.4565 79.6462 14 47 87
-4.31572 -25.2133 79.6415 18 54 98
-3.39016 -25.0916 79.6386 20 62 106
-2.48417 -25.0915 79.6377 22 65 107
-0.136966 -24.604 79.6278 33 66 84
1.67675 -24.6039 79.626 19 20 32
2.62605 -24.3599 79.6213 20 19 34
3.49046 -24.6038 79.6241 21 19 36
4.67708 -25.5773 79.6378 21 23 33
5.58222 -25.5772 79.6369 22 22 33
6.50946 -25.4556 79.6341 24 22 38
7.43714 -25.3341 79.6312 20 20 33
8.81815 -25.2123 79.628 19 21 32
11.5355 -25.2121 79.6252 22 24 33
12.8706 -25.3337 79.6257 22 24 32
13.7047 -25.6981 79.6304 18 20 29
14.6336 -25.5765 79.6276 18 21 31
15.5146 -25.6979 79.6285 16 23 30
17.7274 -25.9404 79.63 11 36 21
18.6818 -25.6977 79.6253 10 42 27
19.5868 -25.6976 79.6243 13 49 48
20.5171 -25.5761 79.6215 25 64 57
21.952 -25.2113 79.6145 31 63 31
22.8578 -25.2112 79.6135 24 48 36
23.7374 -25.3328 79.6145 25 58 72
24.643 -25.3328 79.6136 31 79 89
25.5486 -25.3327 79.6126 41 86 86
26.3737 -25.6971 79.6174 29 50 42
27.8125 -25.3325 79.6103 21 32 31
28.6907 -25.4539 79.6113 27 39 37
29.6788 -25.0891 79.6047 28 41 39
30.6682 -24.7236 79.598 31 51 63
31.6591 -24.3576 79.5914 59 74 86
-31.5685 -25.9444 79.2284 12 40 13
-31.1294 -26.0656 79.2299 16 47 15
-16.0746 -25.0927 79.1987 18 63 9
-15.6216 -25.0927 79.1982 20 62 12
-15.1516 -24.9709 79.1958 23 60 17
-14.2626 -25.0926 79.1968 16 30 18
-11.5803 -25.3357 79.198 17 19 25
-11.0377 -24.727 79.1876 16 20 24
-1.61903 -25.3349 79.1878 25 70 109
9.33893 -24.8472 79.1686 18 20 29
9.72347 -25.2124 79.1741 19 21 32
10.1994 -25.0907 79.1717 19 21 30
16.3702 -25.9407 79.1791 14 45 62
16.7979 -26.0619 79.1806 15 52 63
32.6509 -23.9913 79.1308 73 79 62
-34.2575 -25.7021 78.7747 20 44 18
-33.3653 -25.8234 78.7759 16 38 16
-32.4734 -25.9446 78.7771 17 39 16
-31.1035 -25.8232 78.7736 17 45 17
-30.2122 -25.9444 78.7747 19 49 17
-29.3077 -25.9444 78.7738 18 40 15
-28.3755 -25.7016 78.7687 16 34 17
-27.4705 -25.7016 78.7678 15 38 19
-26.0843 -25.4584 78.7622 16 36 12
-25.1643 -25.3369 78.7592 13 42 4
-24.2588 -25.3368 78.7582 22 59 12
-23.3532 -25.3368 78.7573 16 48 10
-22.4629 -25.4582 78.7585 16 52 12
-21.542 -25.3366 78.7555 20 58 15
-20.1837 -25.3365 78.7541 17 51 14
-19.2621 -25.2148 78.751 19 58 12
-17.4011 -24.8495 78.7429 20 64 12
-16.4947 -24.8494 78.742 17 62 7
-15.1521 -24.9711 78.7427 22 62 16
-13.3919 -25.336 78.7471 15 19 28
-12.4863 -25.3359 78.7461 15 20 27
-10.2224 -25.3358 78.7438 8 28 30
-9.35357 -25.5787 78.7471 7 34 49
-8.42985 -25.4571 78.7441 15 48 86
-7.5245 -25.457 78.7431 20 58 104
-6.16647 -25.4569 78.7417 24 66 108
-5.29975 -25.6999 78.745 24 66 109
-4.37529 -25.5783 78.742 25 68 110
-3.4504 -25.4567 78.7389 27 72 112
-2.13249 -25.6996 78.7417 27 73 109
-1.1464 -25.2134 78.7324 28 72 111
-0.0761373 -24.2383 78.7147 35 67 83
3.55386 -24.238 78.7109 21 22 35
4.69782 -25.4561 78.7306 23 23 35
5.60317 -25.456 78.7296 21 22 32
6.55276 -25.2128 78.7245 21 21 31
7.45854 -25.2127 78.7236 18 19 29
8.83988 -25.091 78.7201 18 20 28
10.5365 -25.6986 78.7287 18 23 33
12.7282 -26.0624 78.7327 10 26 37
13.6325 -26.0623 78.7317 14 38 36
14.5607 -25.941 78.7287 24 52 40
15.9175 -25.9409 78.7273 29 71 74
17.7512 -25.8194 78.7234 39 90 88
18.7059 -25.5765 78.7182 30 82 82
19.611 -25.5765 78.7173 29 85 92
20.5416 -25.4549 78.7143 45 94 90
21.9511 -25.2116 78.7087 46 78 40
22.8569 -25.2115 78.7077 34 56 21
23.7627 -25.2115 78.7068 13 34 15
24.6421 -25.3331 78.708 13 50 47
25.5742 -25.2113 78.705 47 89 85
26.4264 -25.4544 78.7082 26 48 33
27.8658 -25.0895 78.7005 22 32 29
28.7171 -25.3328 78.7038 27 39 36
29.6779 -25.0894 78.6987 32 48 41
30.6673 -24.7239 78.6914 34 57 68
31.6582 -24.3579 78.6841 74 94 105
-18.7935 -25.0933 78.2955 16 51 14
-18.3243 -24.9714 78.2928 14 50 9
-16.0755 -25.093 78.2927 17 62 8
-14.6994 -24.9712 78.2891 24 56 18
-11.5455 -25.0927 78.288 8 28 16
-11.0206 -24.6053 78.2787 6 30 25
-5.04144 -26.9112 78.314 26 73 112
9.63113 -25.6989 78.2772 15 25 19
11.3248 -26.305 78.2863 13 34 41
12.7748 -25.82 78.2761 13 46 75
13.6558 -25.9412 78.2774 28 72 85
16.3937 -25.8197 78.2724 47 98 92
-34.2584 -25.7024 77.8698 15 33 17
-33.3662 -25.8237 77.8712 16 34 15
-32.4615 -25.8236 77.8703 14 34 14
-31.1044 -25.8235 77.8689 17 38 15
-30.2131 -25.9447 77.8702 15 33 15
-29.295 -25.8234 77.867 14 31 13
-28.3764 -25.7019 77.8638 15 31 15
-27.4574 -25.5804 77.8605 16 31 19
-26.0852 -25.4587 77.8568 14 31 17
-25.1799 -25.4587 77.8559 11 35 13
-24.2745 -25.4586 77.855 21 53 19
-23.3692 -25.4585 77.854 13 47 8
-22.4638 -25.4585 77.8531 23 56 20
-21.1214 -25.5799 77.854 17 37 17
-20.2004 -25.4583 77.8508 12 33 15
-19.263 -25.2151 77.8453 20 44 20
-16.4956 -24.8497 77.8355 19 58 12
-15.153 -24.9714 77.8364 23 63 16
-14.2468 -24.9713 77.8355 16 39 12
-13.3754 -25.2146 77.8392 8 24 6
-12.4696 -25.2146 77.8383 9 32 7
-10.1506 -24.8492 77.829 18 56 65
-9.31778 -25.336 77.8373 22 65 101
-8.33779 -24.8491 77.8271 25 73 109
-7.41251 -24.7272 77.8239 27 75 111
-4.45053 -28.8375 77.8983 31 78 110
-2.09329 -25.4569 77.8322 36 82 112
0.830425 -24.2385 77.8062 18 36 40
3.51003 -24.4824 77.8081 22 21 31
4.67522 -25.5779 77.8275 21 21 27
5.60224 -25.4563 77.8243 19 22 30
6.5076 -25.4562 77.8233 18 23 30
7.9105 -25.213 77.8173 15 23 37
8.79363 -25.3346 77.8187 12 27 45
9.60784 -25.8204 77.827 13 36 47
10.9187 -26.0628 77.8302 20 53 59
12.7744 -25.8201 77.8238 31 79 93
13.6791 -25.82 77.8228 53 106 108
14.5838 -25.82 77.8219 55 107 94
15.4643 -25.9412 77.8233 53 101 91
16.8211 -25.9411 77.8219 53 103 94
17.7256 -25.941 77.821 46 99 96
18.68 -25.6983 77.8154 37 92 90
19.5849 -25.6982 77.8145 32 89 89
20.5152 -25.5767 77.8112 48 99 94
21.9502 -25.2119 77.8029 43 72 36
22.83 -25.3335 77.8043 34 51 23
23.7617 -25.2118 77.801 11 36 12
24.6411 -25.3334 77.8024 14 47 42
25.5733 -25.2116 77.7992 50 83 82
26.4254 -25.4547 77.8029 24 38 28
27.8649 -25.0898 77.7945 25 32 27
28.6888 -25.4545 77.8005 29 38 30
29.6493 -25.2113 77.795 32 40 35
30.6942 -24.6023 77.7824 30 49 60
31.6854 -24.2362 77.7745 72 91 100
-18.7945 -25.0936 77.3895 17 39 13
-18.3252 -24.9718 77.3866 13 38 10
-17.8885 -25.0935 77.3885 15 44 10
-17.419 -24.9717 77.3857 20 52 15
-16.0932 -25.215 77.3891 20 56 16
-11.5465 -25.093 77.382 17 55 17
-11.0215 -24.6056 77.3719 17 56 19
-6.56348 -25.0926 77.3769 31 79 110
-1.51982 -24.7269 77.3645 39 86 111
10.0827 -25.6991 77.3718 32 75 107
11.4168 -25.8204 77.3728 41 85 112
-34.2344 -25.4597 76.9599 14 31 22
-33.3417 -25.5811 76.9614 16 29 15
-32.4366 -25.5811 76.9605 16 30 18
-31.5314 -25.581 76.9596 14 30 26
-30.1737 -25.5809 76.9582 12 33 20
-29.2549 -25.4593 76.9547 15 33 23
-28.3496 -25.4592 76.9538 13 32 21
-27.4442 -25.4592 76.9529 15 33 21
-26.5532 -25.5806 76.9545 11 31 15
-25.1808 -25.459 76.9506 14 41 17
-24.2755 -25.4589 76.9496 14 46 12
-23.3852 -25.5804 76.9512 15 48 9
-22.4648 -25.4588 76.9478 17 43 14
-21.1223 -25.5802 76.9489 12 34 13
-20.2014 -25.4586 76.9454 13 35 14
-19.28 -25.3371 76.942 13 35 14
-17.4359 -25.0936 76.9351 16 45 14
-16.0937 -25.2152 76.9362 17 52 15
-15.1709 -25.0934 76.9327 19 51 18
-13.3764 -25.2149 76.9334 17 53 12
-12.4706 -25.2149 76.9325 16 57 10
-10.1334 -24.7277 76.9201 18 54 38
-9.28194 -25.093 76.9267 22 60 85
-8.30144 -24.6056 76.9157 34 81 116
-7.3946 -24.6055 76.9147 36 84 114
-6.48774 -24.6054 76.9138 38 86 116
-5.26297 -25.4574 76.9301 38 83 114
-1.43925 -24.239 76.9011 41 87 117
-0.490751 -23.9946 76.8951 40 86 115
2.66574 -24.1166 76.8943 17 39 60
4.69595 -25.4567 76.9198 11 39 49
5.62321 -25.3351 76.9164 18 45 39
6.52878 -25.3351 76.9155 14 39 17
7.45668 -25.2133 76.912 23 48 24
8.7927 -25.3349 76.9131 30 62 79
9.67542 -25.4563 76.9147 41 86 115
10.5577 -25.5778 76.9163 45 90 119
11.4629 -25.5777 76.9154 48 92 117
12.8206 -25.5776 76.914 43 95 99
13.7019 -25.699 76.9156 67 117 109
14.6309 -25.5774 76.9121 49 98 83
15.4876 -25.8202 76.9163 68 120 99
16.8201 -25.9414 76.9174 57 105 101
17.7246 -25.9413 76.9165 46 99 101
18.679 -25.6986 76.9105 40 92 96
19.584 -25.6985 76.9095 45 99 101
20.5143 -25.577 76.9061 51 100 97
21.9492 -25.2122 76.8971 38 66 33
22.8291 -25.3338 76.8987 26 49 19
23.7084 -25.4552 76.9003 10 38 12
24.6138 -25.4551 76.8994 11 48 40
25.5192 -25.4551 76.8984 48 78 81
26.4245 -25.455 76.8975 20 34 24
27.8368 -25.2118 76.8911 20 34 26
28.6606 -25.5764 76.8977 25 39 31
29.6484 -25.2116 76.8892 28 42 34
30.7212 -24.4806 76.873 31 49 63
31.7125 -24.1143 76.8645 65 82 92
-18.8115 -25.2155 76.4861 13 35 14
-14.7013 -24.9718 76.4767 16 49 11
-14.2654 -25.0935 76.4788 13 47 7
-11.5474 -25.0933 76.476 20 64 12
-11.0405 -24.7279 76.4677 21 65 18
-6.11141 -25.0929 76.4704 40 90 119
1.75756 -24.1168 76.4414 37 78 113
2.94858 -25.0922 76.4611 29 68 106
3.44436 -24.8486 76.4554 28 67 102
-35.0423 -24.486 76.0336 15 41 43
-5.14777 -24.7276 76.0083 42 90 117
-1.37931 -23.8728 75.9853 46 93 121
-0.471171 -23.8727 75.9844 46 93 118
2.62232 -24.3611 75.9921 45 87 110
3.40111 -25.0923 76.0077 43 87 107
21.9483 -25.2125 75.9913 35 64 26
22.8022 -25.4556 75.9959 23 46 16
23.7075 -25.4555 75.9949 15 38 21
24.5865 -25.577 75.9968 12 48 44
25.5182 -25.4554 75.9931 50 84 74
26.3968 -25.5768 75.9949 17 40 10
27.8088 -25.3337 75.988 21 34 24
28.6597 -25.5767 75.9926 27 40 30
29.6199 -25.3336 75.9862 30 43 33
30.7202 -24.4809 75.966 33 51 57
-34.2233 -25.3387 75.599 17 34 30
-33.3304 -25.4601 75.6009 12 30 18
-32.4251 -25.46 75.6 12 34 43
-31.5066 -25.3385 75.5962 22 52 65
-30.1482 -25.3383 75.5948 15 41 58
-29.229 -25.2166 75.591 18 50 66
-28.3093 -25.0949 75.5873 23 52 58
-27.4033 -25.0948 75.5863 13 39 16
-26.5116 -25.2164 75.5882 15 44 8
-25.1676 -25.338 75.5897 16 58 10
-24.2769 -25.4594 75.5916 22 58 15
-23.3865 -25.5808 75.5935 19 44 13
-22.4814 -25.5808 75.5926 17 35 14
-21.1548 -25.8235 75.5968 14 31 10
-20.2343 -25.7021 75.5931 12 33 9
-19.3134 -25.5805 75.5893 15 37 13
-18.3758 -25.3374 75.5827 17 39 17
-17.4538 -25.2157 75.5789 17 39 15
-16.1119 -25.3373 75.5804 20 43 18
-15.1893 -25.2155 75.5766 15 38 13
-14.2491 -24.972 75.57 14 44 11
-13.3778 -25.2154 75.5747 24 53 23
-12.4543 -25.0937 75.571 12 43 8
-10.1166 -24.6062 75.5572 23 61 19
-9.28334 -25.0934 75.5677 12 41 30
-8.32149 -24.728 75.5582 26 63 90
-7.41484 -24.7279 75.5573 42 92 119
-6.45098 -24.3619 75.5478 42 92 112
-5.16762 -24.8496 75.5578 41 90 112
-4.63642 -24.3618 75.5459 43 90 114
-2.32808 -24.1174 75.5379 42 89 116
3.83215 -25.2141 75.5571 44 92 109
4.71624 -25.3357 75.559 46 92 106
5.62182 -25.3356 75.558 53 94 94
6.5495 -25.2139 75.5543 35 62 42
7.47763 -25.0921 75.5505 25 49 22
8.81396 -25.2137 75.5519 17 52 48
9.69688 -25.3353 75.5538 48 92 114
10.6025 -25.3352 75.5529 53 98 113
11.4847 -25.4566 75.5548 52 99 109
12.8428 -25.4565 75.5534 55 105 101
13.7005 -25.6994 75.5582 59 107 102
14.6295 -25.5779 75.5544 52 102 103
15.4862 -25.8207 75.5592 71 124 110
16.8187 -25.9419 75.5606 52 102 104
17.7232 -25.9418 75.5597 50 103 108
18.6776 -25.6991 75.5531 46 102 100
19.6078 -25.5775 75.5493 47 101 95
20.5129 -25.5774 75.5484 45 90 78
31.1453 -24.603 75.5148 57 74 77
31.7393 -23.9926 75.5 64 81 79
32.1932 -23.9926 75.4996 53 64 51
-35.0555 -24.6082 75.1294 23 53 59
-11.5488 -25.0938 75.117 18 60 12
-11.0599 -24.8502 75.1107 19 62 13
1.30231 -24.1173 75.0803 43 89 111
2.49418 -25.0927 75.1026 43 92 112
-35.056 -24.6084 74.676 22 52 55
-34.2117 -25.2173 74.6904 13 30 24
-33.3186 -25.3389 74.6925 13 30 30
-32.4131 -25.3388 74.6916 15 44 62
-31.4944 -25.2171 74.6876 27 61 72
-30.1357 -25.217 74.6862 20 55 73
-29.2162 -25.0953 74.6822 27 64 85
-28.3102 -25.0952 74.6813 20 50 44
-27.4324 -25.3384 74.6864 17 49 20
-26.5269 -25.3384 74.6855 17 56 13
-25.1978 -25.5813 74.6902 18 61 14
-24.2926 -25.5812 74.6893 22 56 19
-23.4025 -25.7026 74.6914 15 39 15
-22.4976 -25.7025 74.6905 14 34 13
-21.1558 -25.8238 74.6921 12 33 11
-20.2511 -25.8237 74.6912 13 41 14
-19.3303 -25.7023 74.6872 16 45 15
-18.393 -25.4592 74.6802 17 45 13
-17.4712 -25.3377 74.6762 15 39 10
-16.1128 -25.3376 74.6748 20 43 16
-15.2072 -25.3375 74.6739 16 37 12
-14.25 -24.9724 74.6638 12 41 11
-13.3613 -25.0941 74.6659 23 53 18
-12.4553 -25.094 74.665 10 41 6
-10.1175 -24.6065 74.6504 21 56 18
-9.30266 -25.2154 74.6648 20 43 23
-7.45345 -24.9718 74.6568 43 91 117
-6.50913 -24.7282 74.6497 46 95 116
-5.24596 -25.3367 74.6636 46 94 114
-0.452049 -23.7508 74.6191 48 94 116
1.69263 -24.4836 74.6352 46 93 112
2.90417 -25.3361 74.6553 50 95 118
3.83122 -25.2144 74.6513 49 93 115
7.49906 -24.9707 74.6414 31 51 13
9.71882 -25.2139 74.6452 50 91 109
10.6246 -25.2139 74.6443 56 97 108
11.4838 -25.4569 74.6495 58 88 94
12.8418 -25.4568 74.6481 51 83 94
13.7234 -25.5783 74.6502 46 91 92
14.6285 -25.5782 74.6493 40 89 90
15.5095 -25.6996 74.6514 68 120 115
16.8668 -25.6995 74.65 50 103 107
17.7718 -25.6994 74.6491 48 101 105
18.7267 -25.4564 74.642 44 100 104
19.6824 -25.2132 74.635 50 104 107
20.5374 -25.4562 74.6402 49 94 73
21.8697 -25.5777 74.6418 37 68 27
22.7489 -25.6991 74.644 19 44 18
23.6538 -25.699 74.643 11 38 30
24.5588 -25.6989 74.6421 36 71 53
25.4902 -25.5774 74.6381 29 67 14
26.8749 -25.4557 74.6337 34 53 27
27.8345 -25.2125 74.6266 23 41 36
28.6856 -25.4556 74.6318 35 55 41
29.6185 -25.334 74.6278 42 67 51
30.691 -24.6033 74.6084 71 103 97
31.7102 -24.1151 74.5952 87 102 98
-11.5497 -25.0941 74.211 20 61 16
-11.0788 -24.9723 74.2074 21 65 15
-8.85023 -25.2155 74.2114 14 37 37
-7.47273 -25.0938 74.2068 43 90 112
0.826694 -24.2398 74.1762 50 96 114
2.0824 -24.8495 74.1907 49 93 118
4.32685 -24.9711 74.1916 51 93 116
4.73654 -25.2145 74.1974 52 94 117
5.23306 -24.971 74.1906 52 96 113
5.66424 -25.0927 74.1933 54 94 112
6.13927 -24.9709 74.1897 59 91 92
8.4048 -24.9708 74.1874 43 56 32
32.1636 -24.1152 74.1409 63 71 58
-35.0692 -24.7307 73.7724 19 42 41
-34.2127 -25.2176 73.7846 16 30 19
-33.3196 -25.3392 73.7869 9 32 36
-32.414 -25.3391 73.786 26 62 74
-31.4953 -25.2174 73.7818 19 55 61
-30.1366 -25.2173 73.7804 28 68 85
-29.2308 -25.2172 73.7795 34 64 65
-28.3389 -25.3388 73.7818 17 42 16
-27.4475 -25.4602 73.7841 17 51 9
-26.5421 -25.4601 73.7832 18 60 9
-25.1841 -25.46 73.7818 21 64 13
-24.2936 -25.5815 73.7841 19 51 15
-23.3884 -25.5814 73.7832 15 39 14
-22.468 -25.4598 73.779 14 40 13
-21.1256 -25.5813 73.7809 12 41 6
-20.2362 -25.7027 73.7832 15 49 9
-19.2993 -25.4596 73.7758 18 53 13
-18.4101 -25.5811 73.7781 17 50 13
-17.4885 -25.4595 73.7739 19 48 14
-16.1305 -25.4593 73.7725 18 46 16
-15.2251 -25.4593 73.7716 17 45 18
-14.2682 -25.0944 73.7608 12 43 12
-13.3796 -25.216 73.7632 22 51 21
-12.4562 -25.0943 73.759 10 40 11
-10.1366 -24.7287 73.7468 24 59 22
-9.30359 -25.2157 73.759 20 38 22
-8.37921 -25.094 73.7548 12 38 48
-7.4732 -25.0939 73.7538 44 88 111
-5.26623 -25.4585 73.7613 50 99 113
2.90324 -25.3364 73.7497 55 97 121
3.89478 -24.8495 73.7356 55 97 108
6.5919 -24.971 73.7361 53 77 64
7.52049 -24.8492 73.7319 39 56 12
9.71789 -25.2142 73.7394 30 52 55
10.6468 -25.0925 73.7352 59 61 65
11.5062 -25.3357 73.7408 45 34 33
12.9118 -25.0923 73.7329 30 62 62
13.7701 -25.3356 73.7385 45 96 94
14.6757 -25.3355 73.7376 38 93 87
15.557 -25.4569 73.7399 68 118 119
16.4623 -25.4568 73.739 51 100 102
17.7708 -25.6997 73.7441 47 100 106
18.7007 -25.5782 73.7399 45 100 109
19.6563 -25.3351 73.7325 47 98 103
20.511 -25.5781 73.7381 52 92 70
21.7916 -25.9421 73.7465 34 63 21
22.6702 -26.0633 73.7488 15 40 12
24.5051 -25.9419 73.7437 17 56 17
25.9152 -25.6991 73.7358 43 73 37
27.7793 -25.456 73.7274 46 72 66
28.6847 -25.4559 73.7264 73 100 83
29.6176 -25.3343 73.7222 72 99 82
30.69 -24.6036 73.7016 85 116 110
31.7093 -24.1154 73.6875 91 104 99
-11.5685 -25.216 73.3084 21 61 18
-11.0797 -24.9726 73.3012 21 64 17
-6.52958 -24.8504 73.2932 53 100 123
-6.11467 -25.094 73.2995 55 100 123
1.67023 -24.606 73.278 53 99 115
2.06038 -24.9715 73.2877 55 100 117
4.36916 -24.7278 73.2786 61 88 83
5.2758 -24.7277 73.2776 43 61 63
8.40387 -24.9711 73.2812 56 68 20
22.6957 -25.9422 73.2933 16 40 13
23.1219 -26.0634 73.2962 14 39 11
23.6002 -25.9421 73.2924 12 40 8
32.6449 -23.9933 73.2293 81 92 73
-35.0702 -24.731 72.8658 14 36 27
-34.2136 -25.2179 72.8788 13 31 17
-33.3205 -25.3395 72.8813 11 38 42
-32.402 -25.2178 72.8769 32 70 78
-31.4962 -25.2177 72.876 20 57 55
-30.1376 -25.2176 72.8746 38 61 59
-29.2318 -25.2175 72.8737 30 48 25
-28.3538 -25.4606 72.8797 24 46 18
-27.4625 -25.5821 72.8822 18 51 11
-26.543 -25.4605 72.8778 21 63 12
-25.185 -25.4603 72.8764 22 63 16
-24.2945 -25.5818 72.879 22 54 25
-23.3592 -25.3387 72.8711 18 40 21
-22.4537 -25.3387 72.8702 17 45 14
-21.1109 -25.46 72.8723 14 50 9
-20.2213 -25.5815 72.8748 19 58 13
-19.2842 -25.3384 72.8669 19 59 11
-18.4273 -25.7028 72.8764 19 56 13
-17.4895 -25.4598 72.8685 16 47 13
-16.1314 -25.4597 72.8671 16 50 12
-15.2261 -25.4596 72.8662 17 51 13
-14.2691 -25.0947 72.8548 18 50 17
-13.3805 -25.2163 72.8574 20 49 21
-12.4748 -25.2162 72.8565 11 42 13
-11.0981 -25.0945 72.8516 20 63 15
-9.30452 -25.216 72.8532 18 45 22
-7.47413 -25.0942 72.8478 42 80 105
-5.24782 -25.3373 72.8525 56 100 120
2.92358 -25.2151 72.8406 58 103 116
3.89385 -24.8498 72.8292 65 97 96
4.77855 -24.9715 72.8318 43 47 41
5.7067 -24.8496 72.8274 43 54 66
6.61312 -24.8496 72.8264 61 88 75
7.54193 -24.7277 72.822 46 67 17
8.85651 -24.9712 72.8276 51 55 15
9.73984 -25.0929 72.8302 36 30 13
11.5052 -25.336 72.8353 36 45 32
12.8872 -25.2143 72.8304 49 88 71
13.7692 -25.3359 72.8329 53 93 73
14.6747 -25.3358 72.832 55 99 79
15.5803 -25.3357 72.8311 60 107 104
16.4859 -25.3357 72.8302 53 105 109
17.8194 -25.457 72.8323 47 104 108
18.7248 -25.457 72.8313 47 103 108
19.6554 -25.3354 72.8269 53 98 92
20.4847 -25.6998 72.8364 26 65 27
21.8164 -25.8211 72.8385 30 54 22
22.6952 -25.9423 72.8411 16 38 12
24.5042 -25.9422 72.8392 31 75 15
25.8876 -25.8208 72.8343 32 58 40
27.7513 -25.5778 72.8255 71 93 85
28.6837 -25.4562 72.8211 78 101 86
29.6166 -25.3347 72.8167 72 92 73
30.6613 -24.7259 72.7982 79 100 99
31.6521 -24.3599 72.7868 72 86 89
32.6161 -24.1156 72.7788 74 89 71
-10.6456 -25.0946 72.3981 22 65 16
-10.1744 -24.9728 72.3941 21 60 16
-8.87057 -25.3378 72.4034 22 45 29
-6.53052 -24.8507 72.3867 56 103 120
1.60635 -24.9719 72.3819 56 102 119
2.05945 -24.9719 72.3815 57 101 117
10.1694 -25.2146 72.3803 41 21 15
10.6685 -24.9712 72.3726 55 41 33
23.121 -26.0637 72.392 12 47 4
23.5992 -25.9424 72.3879 18 59 5
24.9296 -26.0636 72.3901 31 67 30
-35.0711 -24.7313 71.9592 17 39 31
-33.3087 -25.2182 71.9721 16 44 45
-32.4029 -25.2181 71.9711 39 74 79
-31.4972 -25.218 71.9702 35 57 39
-30.1519 -25.3396 71.9725 48 51 16
-29.26 -25.461 71.9753 43 50 12
-28.3686 -25.5824 71.978 27 51 12
-27.4634 -25.5824 71.9771 23 60 15
-26.544 -25.4608 71.9725 20 63 14
-25.1859 -25.4607 71.9711 22 62 15
-24.2954 -25.5821 71.9739 18 55 29
-23.3602 -25.339 71.9655 30 65 42
-22.4546 -25.339 71.9646 25 55 20
-21.0962 -25.3389 71.9632 16 56 13
-20.2065 -25.4603 71.966 16 63 11
-19.253 -25.0954 71.9539 19 66 14
-18.412 -25.5817 71.9678 21 65 13
-17.4575 -25.2169 71.9558 19 60 12
-16.1156 -25.3385 71.9581 19 53 14
-15.227 -25.4599 71.9609 19 48 17
-14.2873 -25.2167 71.9525 19 48 18
-13.3815 -25.2166 71.9516 19 45 19
-12.4757 -25.2165 71.9507 13 43 12
-11.117 -25.2164 71.9493 20 63 15
-9.30545 -25.2163 71.9474 30 58 36
-8.38107 -25.0946 71.9428 22 49 50
-7.49388 -25.2162 71.9455 40 84 98
-6.07777 -24.8509 71.933 61 106 116
-5.26809 -25.4591 71.9506 57 102 115
2.94392 -25.0937 71.9311 60 104 119
3.91444 -24.7283 71.9191 66 102 102
4.82108 -24.7282 71.9182 45 52 38
5.72771 -24.7281 71.9172 46 31 38
6.65653 -24.6061 71.9126 60 65 57
7.56338 -24.606 71.9117 50 70 22
8.87826 -24.8497 71.9177 75 78 23
9.7389 -25.0932 71.9242 55 35 12
11.5043 -25.3364 71.9297 39 49 25
12.8627 -25.3362 71.9283 59 80 23
13.7444 -25.4577 71.9311 62 75 20
14.6498 -25.4576 71.9301 55 66 39
15.5551 -25.4575 71.9292 45 66 63
16.5094 -25.2143 71.9209 46 88 94
17.8433 -25.3359 71.9232 46 99 107
18.7239 -25.4573 71.926 49 99 92
19.6292 -25.4572 71.925 49 87 57
20.4838 -25.7001 71.9315 30 63 20
21.7898 -25.9427 71.9375 15 44 14
22.6943 -25.9426 71.9366 13 49 8
24.5033 -25.9425 71.9347 32 65 19
25.8867 -25.8211 71.9296 12 47 32
26.8183 -25.6997 71.925 52 82 68
27.7774 -25.4566 71.9167 67 88 72
28.7101 -25.335 71.912 73 88 70
29.6433 -25.2133 71.9074 59 70 58
30.6603 -24.7262 71.8916 47 67 72
31.6512 -24.3602 71.8795 68 84 89
32.6151 -24.1159 71.8711 75 79 65
-34.6679 -25.2184 71.5206 13 32 21
-34.19 -24.9749 71.5125 19 38 28
-17.425 -24.9737 71.4953 21 59 10
-10.6646 -25.2166 71.4959 22 63 23
-10.1753 -24.9731 71.4878 20 58 25
-6.11654 -25.0946 71.4875 59 106 114
-4.8353 -25.5808 71.5013 59 103 117
1.54256 -25.3373 71.4872 62 108 125
10.1455 -25.3366 71.4783 59 40 14
23.1461 -25.9427 71.4839 23 66 15
-19.2219 -24.8522 71.0401 21 65 12
30.6316 -24.8483 70.9889 43 68 71
31.6222 -24.4825 70.9762 73 94 94
32.5859 -24.2384 70.9674 69 76 57
-35.4892 -24.3658 70.5876 37 70 59
-32.3914 -25.0969 70.6085 48 63 51
-31.4986 -25.2185 70.6115 48 52 10
-30.1668 -25.4615 70.6182 54 54 16
-29.2751 -25.583 70.6213 40 51 14
-28.3838 -25.7044 70.6243 28 50 9
-27.4648 -25.5828 70.6194 22 59 10
-26.0927 -25.4612 70.614 22 63 15
-25.1727 -25.3396 70.609 21 54 15
-24.282 -25.461 70.6121 16 44 18
-23.3465 -25.2178 70.6032 25 52 28
-22.456 -25.3394 70.6063 23 44 17
-21.5349 -25.2177 70.6013 13 40 10
-18.3809 -25.3391 70.6021 22 66 13
-17.36 -24.4865 70.573 19 62 13
-16.1002 -25.2173 70.5957 21 57 29
-15.2114 -25.3389 70.5988 23 52 21
-14.2714 -25.0955 70.5898 16 40 13
-13.3829 -25.2171 70.5929 15 44 16
-12.4947 -25.3387 70.596 18 51 16
-11.1184 -25.2169 70.5906 21 60 15
-10.1945 -25.0952 70.5856 17 55 11
-9.28846 -25.0951 70.5847 19 56 22
-7.49527 -25.2166 70.5869 43 87 103
-6.11747 -25.0949 70.5815 59 105 120
-5.26948 -25.4596 70.5926 60 105 120
-4.4227 -25.8239 70.6037 62 108 118
-3.53771 -25.9451 70.6068 60 106 116
1.99441 -25.3375 70.5811 60 108 119
2.89999 -25.3375 70.5802 61 106 125
3.89152 -24.8505 70.5632 63 106 125
4.84142 -24.6067 70.5542 66 91 91
5.74827 -24.6066 70.5532 45 38 23
6.6773 -24.4846 70.5483 59 35 26
7.5396 -24.7284 70.5554 54 33 12
8.44624 -24.7284 70.5545 64 56 19
10.6435 -25.0936 70.5642 56 46 3
11.4796 -25.4583 70.5754 68 64 19
12.8613 -25.3367 70.5699 53 70 46
13.7668 -25.3366 70.569 42 81 80
14.6724 -25.3366 70.5681 65 114 115
15.6022 -25.2148 70.5631 50 101 106
16.5325 -25.0931 70.5582 51 104 111
17.8419 -25.3363 70.5648 47 96 85
18.7225 -25.4577 70.5679 30 74 36
19.5775 -25.7007 70.575 29 62 27
20.457 -25.8219 70.5781 13 41 11
21.8141 -25.8218 70.5767 17 46 16
22.7188 -25.8218 70.5758 17 46 15
23.6235 -25.8217 70.5749 22 52 17
24.5282 -25.8216 70.5739 18 46 17
25.912 -25.7002 70.5685 29 50 42
26.8438 -25.5786 70.5636 49 65 54
27.7489 -25.5786 70.5626 46 57 49
28.6814 -25.457 70.5577 46 58 50
29.6143 -25.3354 70.5527 39 52 47
-34.6569 -25.0972 70.1578 15 41 45
-34.1914 -24.9754 70.1532 36 62 65
-33.7383 -24.9754 70.1527 43 66 66
-33.3106 -25.2188 70.1605 30 47 37
-20.5982 -24.9744 70.1392 21 59 16
-20.1767 -25.2177 70.147 19 60 11
-19.7079 -25.0961 70.1424 20 63 11
-19.2228 -24.8525 70.1337 22 66 12
-8.85442 -25.2169 70.1354 21 56 30
9.30683 -24.9721 70.1085 69 67 19
-36.3854 -24.2441 69.677 44 85 101
-35.5023 -24.4882 69.6845 43 77 74
-32.4182 -25.3405 69.7109 45 49 11
-31.5258 -25.4619 69.7142 61 63 14
-30.1946 -25.7048 69.7213 56 57 16
-29.2897 -25.7047 69.7203 39 47 13
-28.3986 -25.826 69.7236 29 52 13
-27.4657 -25.5831 69.7143 22 62 14
-26.532 -25.34 69.7049 20 63 14
-25.159 -25.2183 69.6992 20 53 15
-24.2681 -25.3399 69.7025 15 44 18
-23.3474 -25.2181 69.6974 28 52 28
-22.4416 -25.2181 69.6964 18 34 11
-21.5204 -25.0963 69.6913 11 36 10
-19.2393 -24.9744 69.6847 23 63 13
-18.3981 -25.4609 69.7007 20 63 11
-17.4269 -24.9743 69.6829 19 65 12
-16.1347 -25.4607 69.6984 21 64 19
-15.2124 -25.3392 69.6932 24 58 23
-14.2724 -25.0958 69.6838 16 44 16
-12.4427 -24.9739 69.6777 19 52 17
-11.5008 -24.7302 69.6683 18 51 14
-10.159 -24.8519 69.6712 19 57 17
-9.23418 -24.73 69.666 22 63 20
-8.3089 -24.608 69.6608 21 56 24
-7.45858 -24.9735 69.6726 28 64 67
-6.53331 -24.8517 69.6674 55 97 117
-5.19304 -24.9733 69.6703 62 108 117
-4.42363 -25.8242 69.699 61 108 112
-3.16559 -26.4301 69.7187 63 107 118
2.85655 -25.5808 69.6831 62 108 122
4.86225 -24.485 69.6431 65 107 113
5.74734 -24.6069 69.6464 57 76 72
6.6542 -24.6069 69.6454 44 34 28
7.5163 -24.8506 69.653 55 34 26
8.85325 -24.9722 69.6559 45 41 12
9.73658 -25.0939 69.6592 61 65 20
10.6426 -25.0939 69.6582 60 46 14
11.502 -25.3371 69.6658 56 33 14
12.8839 -25.2154 69.6601 55 41 41
13.7659 -25.3369 69.6635 53 64 71
14.6955 -25.2152 69.6583 65 98 105
15.6256 -25.0935 69.6531 53 99 109
16.5316 -25.0934 69.6522 51 103 110
