ply
format ascii 1.0
element vertex 1318
property float x
property float y
property float z
property uchar red
property uchar green
property uchar blue
end_header
-23.4765 -7.1318 36.5412 51 146 84
-23.371 -9.64844 36.3967 38 133 77
-23.3205 -10.3011 36.3571 36 131 76
-22.9819 -11.2125 36.278 39 140 78
-23.1233 -11.6954 36.2647 43 149 80
-23.9234 -15.256 36.145 45 159 82
-23.9059 -20.205 35.8777 62 187 94
-23.4749 -31.8888 35.212 56 185 90
-22.6383 -33.3174 35.0606 58 185 86
-22.0714 14.1548 37.1063 39 135 57
-22.7506 9.48073 36.9145 47 148 67
-22.6505 8.2248 36.8375 43 141 70
-23.1117 6.26586 36.7729 38 133 71
-23.2954 5.24429 36.7342 47 142 67
-23.2904 4.05922 36.6696 44 141 75
-22.8115 2.46371 36.5401 48 149 79
-22.9347 -1.59843 36.3313 43 149 73
-22.8338 -2.88375 36.2526 51 162 87
-23.0641 -4.4831 36.1867 47 160 84
-23.128 -11.6925 35.8022 53 170 97
-23.4111 -12.6588 35.7754 56 173 97
-23.8866 -13.4528 35.7752 51 169 92
-23.8822 -14.6813 35.7083 54 175 91
-23.777 -17.2352 35.5606 65 189 103
-23.9653 -18.2966 35.5201 60 184 95
-23.8707 -31.5152 34.796 57 184 88
-21.8019 -34.7509 34.4344 71 180 83
-21.8478 -35.3457 34.4064 76 159 74
-22.3875 -35.4699 34.4483 82 134 64
28.404 22.819 32.5424 27 70 39
-22.54 13.3827 36.6546 51 163 76
-22.5724 10.4987 36.5001 46 162 77
-22.7938 7.75829 36.3706 54 166 80
-23.1504 3.34654 36.1622 55 169 87
-22.6144 -0.0863796 35.9261 35 130 70
-22.9392 -1.59559 35.8732 54 169 82
-23.0237 -3.91883 35.7541 61 182 97
-23.1589 -5.60469 35.6743 62 179 93
-23.2493 -6.7313 35.621 55 174 86
-23.4355 -7.77523 35.5809 62 183 89
-23.6219 -8.82063 35.5408 61 181 86
-23.3802 -9.64272 35.474 61 182 90
-23.5214 -10.1241 35.4605 62 182 96
-23.9327 -15.2502 35.218 61 185 92
-23.6394 -16.746 35.1097 65 187 101
-23.8514 -24.6144 34.6995 64 177 90
-23.1142 -27.1821 34.4923 63 182 96
-22.1555 -33.7789 34.0451 63 183 88
-21.1524 15.7103 36.2035 56 168 90
-21.8484 14.5479 36.2032 55 169 83
-22.0804 14.1604 36.2032 55 171 83
-22.4886 11.5941 36.0993 53 176 83
-22.754 8.31022 35.9428 55 177 83
-23.1208 6.27149 35.8642 49 161 82
-23.399 5.33059 35.8379 59 174 84
-23.2995 4.06486 35.7591 61 174 82
-22.8652 1.9143 35.601 63 176 92
-23.039 -1.5099 35.4284 57 171 83
-23.0733 -4.47741 35.2682 62 184 98
-22.9449 -11.8591 34.8502 64 183 96
-23.2282 -12.826 34.8229 65 185 97
-23.6078 -13.7071 34.8092 64 182 86
-23.6992 -14.8497 34.7546 68 183 87
-23.5476 -16.8309 34.6317 66 179 97
-23.7358 -17.892 34.5905 65 171 96
-23.7174 -22.8683 34.3149 65 163 95
-23.8605 -23.359 34.301 62 155 93
-23.8053 -25.2842 34.19 60 154 92
-22.9529 -31.7538 33.7559 60 184 90
-21.9102 -34.6511 33.5009 72 178 85
-22.1536 -35.0576 33.5008 76 155 73
-22.549 13.3883 35.7514 59 180 93
-22.3989 11.5181 35.6338 59 184 94
-22.6256 9.95727 35.5681 62 173 92
-22.9917 7.92374 35.4891 59 178 95
-23.0362 7.37444 35.4627 63 177 99
-23.1149 3.9055 35.2774 58 157 64
-23.2788 -1.89998 34.9704 59 167 86
-23.2236 -3.74596 34.8629 61 172 95
-23.2636 -5.51486 34.7684 66 170 93
-23.3541 -6.64111 34.7142 50 152 69
-23.5403 -7.6847 34.6735 67 175 80
-23.7268 -8.72981 34.6328 62 162 74
-23.7222 -9.94732 34.5648 59 156 71
-23.7496 -15.419 34.2636 66 153 79
-23.8829 -18.3761 34.1118 58 140 72
-23.7267 -21.6168 33.9176 55 140 77
-23.7221 -22.8655 33.8479 57 138 83
-23.9114 -23.9369 33.8059 50 123 81
-24.1475 -25.5924 33.7358 43 123 62
-22.8307 -27.4503 33.5111 39 133 66
-23.0721 -27.8534 33.511 36 143 70
-23.0205 -28.5314 33.4686 56 175 91
-23.1128 -29.7062 33.412 61 188 91
-22.362 -33.586 33.1273 60 184 82
-22.257 -34.9606 33.0414 76 157 74
-21.1614 15.7159 35.3003 66 172 89
-21.8575 14.5535 35.3001 52 153 71
-22.4917 10.428 35.1283 68 172 89
-23.0354 6.19671 34.9422 46 144 78
-23.2191 5.17485 34.9021 64 167 85
-23.0694 3.27371 34.7818 51 137 65
-22.5389 1.03619 34.6073 48 147 73
-22.5835 0.47944 34.5803 62 168 81
-22.9081 -1.02854 34.5261 36 128 52
-23.1381 -2.62256 34.4584 57 147 83
-23.178 -4.38791 34.3633 51 151 83
-22.9033 -12.5095 33.8833 40 138 76
-23.4247 -13.8749 33.8555 72 172 90
-23.6581 -15.5034 33.7861 46 121 65
-23.4605 -16.9129 33.6889 44 122 71
-23.7451 -17.8862 33.6609 48 125 68
-23.9624 -24.5155 33.3102 42 120 59
-22.7141 -32.6177 32.7407 57 187 82
-22.3604 -34.8637 32.5821 80 159 75
-22.6499 -35.8647 32.5531 82 110 56
28.1349 22.4143 30.5992 29 65 50
-21.3979 15.3312 34.8486 64 150 78
-21.862 14.5563 34.8485 45 137 56
-22.5463 11.0564 34.7153 58 142 64
-22.5846 9.33585 34.6219 44 126 51
-22.7676 8.31866 34.5817 54 133 69
-22.9509 7.3 34.5414 56 133 78
-22.9455 6.11909 34.4743 34 126 61
-22.9292 2.55944 34.272 44 128 62
-23.1374 -3.82385 33.9316 49 135 72
-23.1773 -5.5933 33.8355 49 139 72
-23.1721 -6.80446 33.7667 34 117 56
-23.3583 -7.84865 33.7253 54 131 72
-23.6404 -8.80921 33.6976 42 120 57
-22.8173 -11.3674 33.4761 43 125 75
-23.0496 -12.9905 33.4063 54 165 90
-23.475 -14.4434 33.3643 50 137 63
-23.6992 -18.5469 33.1539 34 116 61
-23.8283 -22.7699 32.9278 35 112 49
-24.1146 -23.7511 32.8994 48 136 57
-24.064 -24.4224 32.8568 39 132 46
-24.3508 -25.4055 32.8282 40 136 47
-22.8804 -29.2966 32.4708 60 187 95
-22.2336 -31.8044 32.2686 57 185 89
-22.1745 -33.7672 32.1524 61 184 84
-22.0985 14.1716 34.3968 46 127 69
-22.595 10.5127 34.2358 37 116 61
-22.8946 4.30473 33.9112 70 165 84
-22.4974 0.402767 33.6518 52 161 75
-23.2926 -1.89147 33.5966 52 119 75
-23.1872 -4.38223 33.445 52 135 81
-23.5948 -9.45763 33.195 42 131 75
-23.6403 -10.0243 33.1671 41 133 75
-23.0543 -12.9876 32.9432 49 161 85
-23.3834 -14.5276 32.8868 43 129 70
-23.4748 -15.6723 32.8303 38 133 72
-23.4698 -16.9071 32.7597 39 141 77
-23.658 -17.9686 32.7171 46 146 82
-23.5979 -21.1187 32.5323 46 156 69
-23.8792 -23.3474 32.4323 29 125 51
-23.1377 -27.1676 32.1449 44 161 62
-22.6253 -32.705 31.7816 59 185 91
-22.3699 -34.8579 31.6351 80 158 76
-22.8565 -35.6705 31.6349 89 112 59
-18.3907 20.3737 33.9465 36 132 62
-21.407 15.3368 33.9455 49 126 72
-21.871 14.5619 33.9453 43 114 77
-22.3351 13.787 33.9452 47 124 68
-22.4993 9.26196 33.7015 45 127 75
-22.5879 8.16463 33.6471 42 123 57
-22.7711 7.14539 33.6062 37 117 57
-22.7655 5.96372 33.5379 38 135 60
-22.9437 3.75443 33.4283 37 125 40
-22.9383 2.56509 33.3596 41 134 49
-22.4129 1.51897 33.2496 39 132 57
-22.8266 -1.10281 33.1388 49 139 60
-23.3423 -2.44771 33.1109 33 115 47
-23.2369 -4.94116 32.958 40 126 74
-23.1813 -6.79875 32.8462 42 146 75
-23.2214 -8.57832 32.7481 31 131 65
-23.0643 -11.7586 32.5508 46 159 73
-23.2006 -13.4688 32.4658 64 164 94
-23.7086 -18.5411 32.2236 49 168 91
-24.1239 -23.7453 31.965 48 164 83
-24.1198 -24.9984 31.8928 52 178 86
-23.1885 -27.7502 31.6463 51 180 79
-22.792 -29.3827 31.5149 63 191 97
-22.381 -33.5743 31.2355 62 181 90
-18.8593 19.6016 33.4947 53 167 76
-22.1076 14.1772 33.4937 38 123 74
-22.4216 11.5321 33.3711 44 138 82
-22.3714 10.9069 33.3302 43 144 79
-22.8201 6.5979 33.1244 37 134 75
-22.993 3.20366 32.945 46 152 70
-22.6523 1.12964 32.7924 41 155 73
-22.6465 -0.066539 32.7228 56 174 83
-23.3969 -1.80284 32.6946 46 154 75
-23.4372 -3.56467 32.5967 43 153 72
-23.3821 -5.41653 32.4845 47 158 83
-23.0397 -7.52973 32.3295 60 177 87
-23.3671 -9.05626 32.2728 51 172 80
-23.5538 -10.1041 32.2303 58 179 89
-23.5804 -15.5792 31.9166 49 162 89
-23.4791 -16.9014 31.8305 61 185 98
-23.6673 -17.9628 31.7873 60 183 86
-23.7501 -21.6024 31.585 67 185 96
-23.7962 -22.1816 31.556 62 176 87
-23.9854 -23.2517 31.5124 47 166 80
-22.8313 -32.5129 30.8665 60 186 91
-22.5764 -34.6643 30.7178 85 161 81
-22.9644 -35.5705 30.7027 91 115 60
-22.4201 10.3628 32.8497 49 165 85
-22.2251 9.02885 32.7532 50 164 84
-22.5025 8.09038 32.7254 47 160 80
-22.6857 7.07087 32.6838 43 158 80
-22.8191 5.41784 32.6005 48 166 86
-23.0923 3.28782 32.503 49 168 87
-22.9922 2.01589 32.4193 54 172 88
-22.931 -1.01436 32.237 56 179 94
-23.4466 -2.3589 32.2086 59 179 95
-22.9992 -6.96225 31.8973 58 177 94
-23.1348 -8.65776 31.8118 59 184 87
-23.4172 -9.61986 31.7831 61 178 91
-23.4122 -10.8402 31.7116 62 181 92
-23.3568 -12.7195 31.5968 61 178 88
-23.4479 -13.8606 31.5392 64 174 100
-23.5898 -14.345 31.5248 54 169 91
-23.5755 -18.048 31.3078 66 182 85
-24.2261 -24.9022 30.9719 61 191 95
-22.4889 -33.475 30.3046 60 181 84
-17.7082 21.5445 32.592 33 95 50
-18.4043 20.3821 32.5917 39 131 67
-18.8683 19.6072 32.5916 55 168 85
-21.8846 14.5703 32.5906 50 159 82
-22.5807 13.4079 32.5904 58 173 86
-23.0447 12.633 32.5902 59 174 91
-22.3364 11.4588 32.4522 60 177 93
-22.7347 6.52319 32.2015 57 178 88
-22.8682 4.86859 32.1175 60 180 92
-23.1416 2.73666 32.0191 60 180 91
-22.846 0.104001 31.8358 64 181 91
-23.5011 -1.71427 31.7931 59 176 85
-23.1604 -3.80964 31.6369 68 174 98
-23.2507 -4.93262 31.5799 64 156 94
-22.9532 -7.60885 31.3938 60 181 96
-22.9984 -8.17419 31.3651 63 183 89
-23.1743 -11.6638 31.1775 64 179 83
-23.392 -16.9834 30.8867 66 165 85
-23.3361 -18.8861 30.7696 62 147 72
-23.3769 -20.7069 30.6668 53 147 68
-23.7594 -21.5966 30.652 60 177 83
-23.8517 -22.7555 30.593 63 187 96
-24.1379 -23.7367 30.5634 61 190 95
-22.7425 -32.6002 29.9072 60 186 85
-22.7828 -34.4708 29.8014 80 156 77
-22.1211 14.1856 32.1389 54 171 81
-22.4291 10.3685 31.9436 63 177 88
-22.1837 8.40575 31.8034 64 177 85
-22.4614 7.46634 31.7752 55 164 83
-22.6447 6.44562 31.7329 59 174 87
-22.6388 5.26199 31.6623 59 173 83
-22.8226 4.23778 31.6199 64 177 85
-23.0013 2.02155 31.5064 64 174 88
-23.1305 -0.843294 31.3498 66 169 81
-23.5508 -2.27019 31.3068 61 165 91
-23.1441 -8.65205 30.8895 68 177 87
-23.3306 -9.69962 30.8459 45 139 68
-23.4214 -10.8345 30.7878 62 158 87
-23.4621 -12.6273 30.6858 62 147 82
-23.5534 -13.768 30.6273 42 120 66
-23.5486 -14.9981 30.5541 59 142 77
-23.498 -15.658 30.5102 56 138 71
-23.5389 -17.4673 30.4072 58 138 70
-22.5968 -33.3757 29.3741 59 178 78
-17.7173 21.5501 31.6888 31 97 48
-18.4133 20.3877 31.6886 37 132 64
-21.4296 15.3508 31.6876 59 159 85
-21.8936 14.5759 31.6874 59 169 83
-22.5897 13.4135 31.6872 59 169 81
-22.4779 9.82391 31.4623 59 168 83
-22.9665 3.76854 31.15 63 154 62
-23.0113 3.21495 31.1215 60 147 61
-22.9109 1.94258 31.0357 59 146 68
-22.9503 0.192048 30.9354 59 149 66
-23.5103 -1.7086 30.8777 43 126 58
-23.0742 -3.88756 30.7046 61 140 88
-23.2599 -4.92693 30.6611 42 111 69
-22.9679 -6.38961 30.545 48 123 67
-23.1087 -6.86906 30.5304 42 130 63
-23.2796 -11.572 30.2672 45 127 59
-23.5751 -21.7695 29.6891 38 141 74
-23.8611 -22.7497 29.659 62 188 96
-24.1473 -23.7309 29.629 61 188 91
-24.4339 -24.713 29.5989 60 189 92
-22.6536 -32.6875 28.9474 62 185 89
-22.6476 -33.9654 28.8706 74 174 87
-22.937 -34.9647 28.8398 86 132 69
-23.4233 -35.7767 28.8396 96 116 71
-22.1302 14.1912 31.2358 59 149 86
-22.5384 11.6249 31.1225 52 141 76
-22.2433 9.0401 30.9379 58 167 89
-22.565 7.55202 30.8807 42 121 58
-22.648 5.26763 30.7519 40 128 51
-22.8317 4.24342 30.7088 54 140 61
-22.921 3.13637 30.6512 43 119 49
-22.8206 1.86361 30.5648 40 116 52
-23.0445 -0.920315 30.4201 52 127 65
-23.3698 -2.43068 30.3619 48 125 60
-23.3096 -5.48639 30.1725 44 114 66
-23.1586 -7.43066 30.0407 48 148 70
-23.1533 -8.64634 29.9672 71 174 87
-23.3398 -9.6939 29.923 37 131 55
-23.4307 -10.8288 29.864 51 139 67
-23.5674 -12.5352 29.7752 46 126 77
-23.6588 -13.6755 29.7159 43 122 80
-23.6541 -14.9052 29.6416 37 116 72
-23.7457 -16.0504 29.582 38 128 62
-23.5482 -17.4615 29.4776 41 136 63
-23.3043 -18.3012 29.4028 35 131 65
-17.7263 21.5556 30.7856 32 97 49
-18.4224 20.3933 30.7854 38 134 67
-20.9746 16.1313 30.7846 45 121 63
-21.4386 15.3564 30.7844 52 126 77
-21.9027 14.5815 30.7843 52 122 81
-22.5987 13.4191 30.784 50 123 65
-22.5371 10.4561 30.5986 39 129 73
-22.1974 8.41419 30.441 67 167 87
-22.7529 6.53445 30.3832 48 123 61
-23.0651 2.66645 30.1807 39 124 53
-23.0491 -0.91748 29.9624 39 120 51
-23.4244 -1.78582 29.9476 40 127 40
-23.2691 -4.92124 29.7424 50 131 80
-23.3092 -6.69425 29.6392 36 123 62
-23.3849 -11.4802 29.3574 36 127 61
-23.8007 -15.3874 29.163 40 138 83
-23.2581 -18.963 28.8921 45 157 84
-23.6813 -21.6744 28.7707 48 168 79
-23.9672 -22.6543 28.7403 60 188 82
-24.0598 -23.815 28.6794 64 191 88
-22.6571 -33.9596 27.9247 76 179 89
-22.9465 -34.9588 27.8934 90 139 74
-23.3344 -35.865 27.8777 102 122 75
-22.1392 14.1968 30.3326 43 112 65
-22.359 11.4728 30.1889 37 116 57
-22.5741 7.55765 29.9722 43 133 61
-22.7518 5.35403 29.856 41 134 83
-22.8409 4.24906 29.7977 41 129 75
-22.9301 3.14202 29.7393 44 138 71
-23.0196 2.03286 29.6808 49 143 72
-22.8689 0.118166 29.5488 31 124 56
-23.2838 -2.50815 29.4309 32 141 52
-23.1384 -3.2347 29.3719 35 142 60
-22.9926 -3.96268 29.3127 43 148 74
-23.3189 -5.4807 29.2533 52 151 79
-23.2634 -7.34022 29.1344 50 153 77
-23.5358 -10.7372 28.9551 53 163 79
-23.5311 -11.9601 28.8801 41 152 66
-23.8601 -13.4964 28.8199 46 158 75
-24.0139 -24.4836 28.166 62 191 92
-22.8644 -32.4924 27.5615 60 185 88
-17.7354 21.5612 29.8825 30 96 47
-18.4314 20.3989 29.8822 39 132 60
-20.7516 16.5243 29.8815 44 135 59
-21.4477 15.362 29.8813 41 131 39
-21.9117 14.5871 29.8811 37 121 43
-22.6078 13.4247 29.8809 37 128 48
-22.5462 10.4617 29.6927 43 143 60
-22.3514 9.12813 29.591 52 160 69
-22.3011 8.49963 29.5472 57 167 81
-22.762 6.54009 29.4741 37 147 75
-23.1828 -4.99953 28.8087 55 174 90
-23.2228 -6.7731 28.704 52 170 77
-23.3133 -7.90218 28.6439 52 172 80
-23.4495 -9.59986 28.5536 58 186 84
-23.6773 -12.4403 28.4026 58 179 88
-24.0066 -13.9774 28.3418 57 181 83
-24.0984 -15.12 28.2811 57 181 85
-23.9018 -16.5275 28.1746 61 187 92
-23.8974 -17.7636 28.0983 59 184 88
-23.5938 -21.758 27.8221 65 192 100
-23.7829 -22.8278 27.7758 62 189 95
-23.9216 -24.571 27.6829 61 191 95
-23.0543 -34.8591 26.9628 90 138 61
-23.3439 -35.8591 26.931 103 124 64
-22.1483 14.2024 29.4294 44 155 64
-22.3681 11.4785 29.2836 43 158 72
-22.7609 5.35966 28.9457 60 177 86
-22.7552 4.1736 28.8718 60 176 85
-22.9393 3.14766 28.8273 59 176 90
-23.0287 2.03851 28.7679 64 182 89
-22.9732 0.20621 28.6489 58 177 81
-23.253 -0.743675 28.619 58 182 80
-23.4382 -1.77732 28.5741 62 186 84
-23.3882 -2.41933 28.5293 63 184 84
-23.0522 -3.31251 28.4395 64 183 88
-23.2326 -5.55913 28.3191 63 178 82
-23.3633 -8.46467 28.1529 58 180 87
-23.6363 -11.8682 27.9706 64 182 91
-23.8236 -12.9206 27.9248 56 171 84
-24.2451 -15.602 27.8024 59 188 88
-24.0275 -23.2257 27.3086 61 191 96
-22.868 -33.7637 26.5377 79 178 84
34.2065 22.2591 23.636 31 71 32
33.9355 21.2515 23.6013 29 73 39
-17.7444 21.5668 28.9793 31 96 53
-18.6725 20.017 28.979 49 153 85
-20.7607 16.5299 28.9783 57 172 86
-21.4567 15.3676 28.9781 54 170 87
-21.9208 14.5927 28.9779 53 174 85
-22.6168 13.4303 28.9777 53 176 84
-22.2784 11.4024 28.8163 56 176 93
-22.5552 10.4673 28.7868 61 176 95
-22.5493 9.29286 28.713 57 172 82
-22.5434 8.11569 28.6391 59 178 82
-22.7267 7.09619 28.5946 60 179 85
-23.1729 1.56785 28.2965 63 177 92
-22.9559 -4.59961 27.8899 59 165 84
-23.3226 -7.89647 27.7225 57 167 88
-23.5091 -8.94246 27.6767 62 180 96
-23.6456 -10.6429 27.585 65 174 102
-23.97 -13.4012 27.4468 51 158 82
-24.1118 -13.8849 27.4314 62 179 97
-24.0618 -14.5427 27.3852 63 189 99
-23.8148 -16.6094 27.2309 63 190 92
-23.8847 -23.9836 26.7788 63 193 97
-20.3012 17.3076 28.5269 61 171 91
-22.1573 14.208 28.5263 63 177 92
-22.7757 6.54853 28.1103 65 176 87
-22.6696 4.09813 27.9455 72 166 93
-22.9484 3.15331 27.9153 46 143 72
-23.2275 2.20758 27.8852 68 176 100
-23.3173 1.097 27.8249 64 154 98
-23.3572 -0.655389 27.7191 40 140 79
-23.4473 -1.77164 27.6585 71 177 97
-22.7751 -3.55736 27.4762 49 147 62
-22.8143 -5.32727 27.3693 43 131 61
-23.1463 -5.63761 27.3845 54 143 78
-23.0001 -6.36965 27.3233 53 146 82
-23.5592 -9.50586 27.1849 68 168 84
-24.2123 -13.7954 26.984 60 174 90
-23.0277 -32.979 25.6567 62 180 89
-23.3116 -35.2562 25.5435 91 112 55
34.1967 22.2652 22.655 31 69 30
-22.6143 11.0985 27.9256 67 163 94
-22.7028 10.005 27.8658 53 138 77
-22.5525 8.12131 27.731 60 157 89
-22.7358 7.10182 27.6858 65 162 92
-22.5852 5.2066 27.5502 59 149 86
-23.2116 -2.57713 27.1243 51 151 59
-23.3369 -6.67715 26.8784 42 124 80
-23.4275 -7.80586 26.8166 52 149 79
-23.5183 -8.93675 26.7547 60 159 68
-23.705 -9.98427 26.7081 60 141 74
-23.6501 -11.8596 26.5838 44 120 63
-23.7918 -12.3425 26.5682 50 131 69
-24.167 -14.45 26.4745 63 186 96
-24.1169 -15.1085 26.4276 64 187 91
-23.9707 -15.8554 26.3651 61 186 88
-23.8241 -16.6036 26.3024 62 187 87
-22.9398 -31.7941 25.2494 64 189 94
-22.9805 -33.6615 25.1357 79 173 91
-17.758 21.5752 27.6246 31 97 49
-18.454 20.4129 27.6243 40 136 69
-20.7742 16.5383 27.6236 46 141 73
-21.4703 15.376 27.6233 47 136 61
-21.9343 14.601 27.6232 54 137 67
-22.6304 13.4387 27.623 56 138 66
-22.7516 9.46027 27.3826 51 130 69
-22.8793 6.6345 27.2163 49 126 61
-22.8628 3.07755 26.9882 38 117 57
-23.0865 0.299816 26.8351 53 132 95
-23.2663 -1.93185 26.7121 65 180 89
-23.1607 -4.42336 26.5423 46 134 54
-23.0148 -5.15332 26.4804 51 135 66
-23.851 -10.4629 26.2311 38 124 63
-24.0715 -15.7651 25.917 61 186 88
-23.2334 -32.7868 24.7449 66 177 92
34.8446 24.2012 21.7275 91 107 62
34.341 23.3601 21.7274 71 94 51
-21.0108 16.1537 27.1719 48 145 70
-22.1709 14.2164 27.1715 48 126 61
-22.8061 10.0899 26.9748 38 117 54
-22.8449 8.36643 26.8685 45 125 66
-22.8338 6.00597 26.716 41 116 55
-22.912 2.52589 26.5013 35 126 59
-22.9567 1.97085 26.4705 45 139 73
-23.0014 1.41532 26.4397 58 154 90
-23.1757 -2.01205 26.2386 64 180 90
-22.8844 -3.46528 26.1143 44 148 57
-22.9293 -4.02648 26.0832 42 141 56
-22.9239 -5.23455 26.0051 42 136 64
-23.3461 -6.67145 25.9581 37 128 68
-23.4367 -7.80016 25.8954 47 150 69
-23.5275 -8.93104 25.8326 53 154 65
-23.7143 -9.97855 25.7854 38 137 63
-23.6594 -11.8539 25.6594 48 144 73
-23.7508 -12.9928 25.5961 34 134 64
-23.9297 -16.5102 25.3897 65 190 94
-22.7876 -35.1232 24.0748 83 123 58
-17.767 21.5808 26.7214 28 96 43
-18.4631 20.4185 26.7212 40 138 70
-20.7833 16.5439 26.7204 30 124 48
-21.4794 15.3815 26.7202 51 145 60
-21.9434 14.6066 26.72 42 126 53
-22.6395 13.4443 26.7198 37 125 50
-22.4896 11.5741 26.583 39 124 49
-22.7607 9.46588 26.476 37 125 55
-22.9882 7.90006 26.3994 44 126 61
-23.0327 7.35062 26.3687 36 112 51
-22.4092 5.05335 26.1534 30 115 65
-22.5485 4.58148 26.1379 41 130 75
-22.9056 0.14083 25.8897 45 144 70
-23.0903 -0.891964 25.8429 40 145 67
-22.9395 -2.81841 25.7023 55 169 78
-22.9789 -4.58538 25.5925 44 156 76
-23.7645 -10.5428 25.2923 46 167 79
34.8348 24.2072 20.7473 78 93 49
34.4478 23.2838 20.7292 62 88 47
-21.0198 16.1593 26.2687 34 132 66
-22.1799 14.222 26.2684 35 136 60
-22.854 8.37205 25.9611 53 153 77
-22.9429 7.27335 25.8993 32 124 51
-22.4582 4.5033 25.6668 43 151 76
-22.5472 3.39596 25.6044 49 155 78
-22.8709 1.89472 25.5418 61 172 88
-22.8936 -3.45959 25.1963 58 175 81
-22.9331 -5.22885 25.0855 56 177 89
-23.0737 -5.70763 25.0696 61 181 93
-23.3503 -7.87935 24.9584 58 178 88
-23.5823 -9.49157 24.8787 56 183 82
-23.7646 -11.7621 24.7508 62 187 98
-23.76 -12.9871 24.6707 58 182 92
-23.8931 -15.9313 24.4937 65 192 95
-23.0161 -29.8292 23.4954 61 185 92
-18.4721 20.4241 25.818 41 140 69
-22.6485 13.4499 25.8166 45 167 76
-22.4044 11.5009 25.6625 47 169 79
-22.7255 10.019 25.6005 48 165 84
-22.7084 6.48505 25.3673 31 140 56
-22.4688 5.69204 25.2893 37 153 66
-22.8308 2.45272 25.1167 57 174 90
-22.7635 -1.77636 24.8325 59 181 84
-22.8027 -3.5403 24.7213 65 178 93
-22.8926 -4.66358 24.6576 60 176 89
-22.9827 -5.78902 24.5938 65 179 98
-23.1687 -6.832 24.5458 66 175 99
-23.4002 -8.44184 24.4656 64 183 95
-23.7737 -10.5371 24.3692 57 186 84
34.825 24.2133 19.7671 76 94 52
34.4379 23.2899 19.7487 57 85 46
-21.957 14.615 25.3653 57 179 89
-22.189 14.2276 25.3652 59 182 92
-22.1324 12.4377 25.241 57 178 84
-22.8686 9.55371 25.1317 64 181 96
-22.4229 5.06182 24.7868 57 181 80
-22.6513 3.483 24.7078 67 180 95
-22.8745 0.706233 24.5493 58 164 80
-23.0592 -0.325625 24.5015 59 172 84
-22.9083 -2.24996 24.3581 64 176 86
-23.5915 -9.48586 23.9562 63 186 88
-23.8697 -11.6702 23.8428 65 190 92
-22.6575 13.4555 24.9135 59 178 91
-22.4134 11.5065 24.7572 63 175 76
-22.8288 10.1039 24.71 62 167 89
-22.912 7.83139 24.5684 60 173 93
-22.8121 6.57106 24.4737 59 175 88
-22.3771 4.43072 24.2836 59 173 70
-23.0744 2.06678 24.2038 72 171 85
-22.7164 -3.61822 23.7869 71 155 100
-22.9018 -4.65789 23.7384 42 123 68
-22.8963 -5.8676 23.6576 52 140 69
-23.2735 -6.74174 23.6412 57 150 70
-23.3641 -7.87079 23.5763 47 148 65
-23.783 -10.5314 23.446 62 187 92
-23.7191 -14.865 23.1514 64 188 96
34.8152 24.2194 18.7868 78 92 50
34.4281 23.296 18.7682 57 82 47
-21.966 14.6206 24.4621 66 163 82
-22.198 14.2332 24.462 70 171 87
-22.8777 9.55932 24.2254 66 156 83
-22.5269 5.14832 23.8916 62 167 82
-22.6159 4.0424 23.8276 45 146 63
-22.8947 3.09732 23.7955 47 147 76
-23.1739 2.15134 23.7634 68 164 89
-23.0737 0.87626 23.667 40 124 53
-22.9678 -1.60192 23.4897 66 169 95
-22.8221 -2.32743 23.425 41 141 69
-23.3184 -8.51835 23.0666 41 152 71
-22.4225 11.5121 23.8519 48 124 45
-22.932 10.1887 23.8199 45 123 45
-23.2092 9.25276 23.788 49 129 54
-22.8211 -3.52893 22.8848 62 154 94
-22.911 -4.65219 22.8193 33 125 72
-22.9055 -5.8619 22.7373 56 153 90
-23.2827 -6.73604 22.7207 53 147 76
-23.3733 -7.86509 22.6549 43 144 73
-23.5096 -9.56271 22.556 62 187 97
-23.6006 -10.6972 22.4899 62 189 93
34.3017 23.3844 17.8064 49 76 46
32.4427 21.1101 17.862 26 72 35
-21.9181 12.8371 23.4314 41 121 75
-22.0563 12.3703 23.4153 40 124 66
-23.4465 8.86683 23.3349 44 120 53
-23.0646 7.37031 23.1904 42 120 56
-22.9203 6.65983 23.1261 43 125 64
-22.625 4.04805 22.9159 59 154 83
-22.9039 3.10297 22.8833 28 131 53
-23.0881 2.07526 22.8345 65 172 80
-23.1726 -0.231782 22.6878 39 138 63
-22.8313 -2.32175 22.5078 57 165 91
-23.3276 -8.51264 22.1445 44 154 83
-21.9796 14.629 23.1074 40 117 69
-22.2116 14.2416 23.1073 36 116 69
-22.4436 13.8541 23.1072 38 123 78
-22.4316 11.5177 22.9466 40 131 60
-22.9411 10.1943 22.9142 43 129 61
-23.3124 9.33783 22.898 40 123 58
-23.2132 8.08227 22.8011 33 118 50
-22.4961 5.70896 22.5579 33 129 60
-22.9924 0.80259 22.2798 40 141 47
-22.9367 -1.03473 22.1482 56 169 87
-22.8303 -3.52324 21.9665 50 163 72
-22.9202 -4.6465 21.9001 46 163 72
-22.819 -5.94055 21.8004 62 174 90
-23.3825 -7.85938 21.7335 46 157 80
-23.4733 -8.99057 21.6667 57 177 90
34.4085 23.3081 16.8072 50 77 48
32.4329 21.1161 16.8826 28 71 42
-21.9272 12.8427 22.5265 40 148 80
-22.0653 12.3759 22.5103 44 155 84
-23.1818 -0.226116 21.773 44 165 75
-22.9862 -1.59057 21.657 61 181 92
-22.8687 -6.50157 21.3066 59 180 87
-23.1052 -6.89665 21.3065 57 177 88
-23.5234 -9.55414 21.1719 69 194 100
-22.2206 14.2471 22.2041 49 161 78
-22.7391 5.32402 21.6474 53 179 81
-22.7335 4.13765 21.5648 61 185 88
-22.8729 3.66538 21.5482 56 179 84
-22.8899 -2.87338 21.0985 61 186 92
-23.3918 -7.85367 20.8122 61 183 95
-23.5783 -8.89963 20.7614 64 187 96
34.6691 24.3197 15.8653 64 79 44
34.1656 23.4789 15.8652 46 75 40
32.5391 21.0393 15.8839 27 73 33
-18.5128 20.4492 21.7538 42 142 67
-22.7719 11.2167 21.605 58 178 86
-23.7915 8.56896 21.5389 58 178 92
-23.286 -0.137988 20.875 63 185 90
-23.1702 -5.03229 20.5213 62 184 87
-23.165 -6.24245 20.4365 62 183 90
-23.6284 -9.46301 20.2662 63 185 91
-22.6937 13.4778 21.3008 59 180 84
-22.8374 4.2244 20.67 61 182 90
-23.3805 -1.25067 20.3501 60 182 91
-23.1402 -2.05818 20.2656 61 182 94
-22.9946 -2.78431 20.1978 63 185 94
-22.9441 -3.42832 20.1468 60 185 89
-23.3104 -6.71894 19.9592 61 183 92
-23.4967 -7.76307 19.9079 60 184 91
34.6593 24.3258 14.8854 71 89 51
33.6332 22.0584 14.846 28 71 40
32.4132 21.1283 14.9236 27 71 38
-22.8475 5.41322 20.2985 62 184 93
-23.0945 -2.69819 19.7561 64 183 97
-23.6423 -8.24038 19.43 64 187 91
-23.9792 -8.54772 18.9866 62 185 86
-22.8013 -15.7096 18.3398 60 185 89
34.7661 24.2497 13.8857 76 92 52
34.2625 23.4087 13.8855 50 77 40
33.6234 22.0645 13.8655 28 70 37
32.4034 21.1343 13.9441 27 69 37
-23.199 -2.60926 18.8562 62 187 89
-23.0984 -3.89727 18.7523 57 183 82
-23.3795 -4.85295 18.7176 63 186 87
-23.3242 -6.71038 18.5785 63 186 95
-23.6061 -7.6697 18.5435 61 185 92
-22.5219 -14.7347 17.9107 61 185 94
-22.7093 -15.7943 17.8574 61 184 95
-23.0904 -16.6797 17.8395 61 187 96
-22.8556 4.23569 18.8473 62 178 87
34.7563 24.2558 12.9054 78 97 51
33.6135 22.0705 12.885 28 70 40
32.3936 21.1404 12.9646 30 71 41
-22.4424 5.65367 18.4437 61 179 88
-23.2081 -2.60358 17.9392 60 184 87
-23.2983 -3.72437 17.8691 57 184 87
-23.484 -4.76336 17.8164 63 188 89
-23.4792 -5.97231 17.7284 59 185 81
-23.8064 -7.49447 17.6578 63 184 89
-22.9119 -15.6134 16.9636 60 183 81
-23.0031 -16.7617 16.8916 61 186 85
-23.6246 -6.44841 17.2509 65 180 91
-22.8256 -14.4644 16.5713 60 167 67
-23.2518 -15.9216 16.517 66 175 65
34.8631 24.1797 11.905 81 97 51
34.2428 23.4208 11.925 48 77 35
33.6037 22.0766 11.9046 30 70 37
1.80773 20.6873 15.6768 28 80 41
-21.7973 15.0472 18.14 61 177 83
-22.4934 13.8849 18.1398 66 180 90
-22.7357 5.90124 17.5853 61 176 83
-22.9195 4.87796 17.5328 62 173 85
-22.8079 1.22589 17.2521 62 173 87
-22.8023 0.0298298 17.1639 58 172 85
-22.9871 -1.00353 17.1108 65 174 78
-23.3075 -3.71868 16.9512 54 163 75
-23.4932 -4.75767 16.8978 63 170 88
-23.4885 -5.96661 16.8088 67 172 95
-23.7701 -6.92469 16.7731 62 156 94
-22.5525 -12.2625 16.2342 63 156 86
-22.6431 -13.4045 16.1617 63 157 80
32.3789 21.1495 11.4954 26 67 37
-21.8018 15.05 17.6885 61 166 77
-22.2659 14.2751 17.6883 65 173 89
-22.7299 13.5002 17.6882 61 164 77
-22.6744 11.709 17.5495 57 158 75
-22.7904 6.53574 17.1829 64 163 85
-23.0133 3.77484 17.007 50 144 59
-22.8125 1.22872 16.795 61 162 83
-22.8069 0.0326642 16.7063 56 162 83
-23.2721 -1.95245 16.6172 43 138 63
-23.9157 -7.40119 16.295 48 126 74
-22.6024 -12.8303 15.7344 52 134 62
-22.886 -13.7996 15.6978 49 129 66
-23.0734 -14.8569 15.643 37 118 54
-23.454 -15.7408 15.6246 39 118 59
34.8533 24.1858 10.9245 79 92 52
33.9622 22.4207 10.9037 30 67 35
-21.1103 16.2152 17.2371 66 170 84
-22.9394 7.24949 16.7987 40 124 52
-22.934 6.06794 16.7106 59 142 86
-22.8784 4.2498 16.569 42 119 55
-22.9678 3.14252 16.4981 54 132 63
-23.1815 -2.03264 16.1411 45 127 72
-23.4071 -4.83588 15.9614 47 125 67
-23.4977 -5.96091 15.8892 45 122 62
-23.9203 -7.39834 15.8349 46 123 65
32.1373 21.3212 10.557 28 70 35
2.61652 21.8189 14.2577 28 79 38
-21.5788 15.4431 16.7854 54 130 54
-22.2749 14.2807 16.7851 42 121 65
-22.7389 13.5058 16.785 61 139 76
-22.7276 11.1686 16.6094 33 120 62
-22.4389 9.7578 16.4685 68 164 86
-22.4329 8.58118 16.3801 39 117 47
-22.8885 5.43859 16.2024 42 119 66
-22.9112 0.120748 15.809 49 140 78
-23.3264 -2.50616 15.6648 49 138 77
-23.2259 -3.79373 15.5564 49 141 76
-23.4067 -6.04241 15.4113 36 118 57
-22.8045 -12.6514 14.8441 39 134 57
-23.2756 -14.6768 14.7516 41 143 79
-23.4633 -15.7351 14.696 36 137 71
33.4677 22.1714 9.96432 26 68 35
2.37191 21.4211 13.7907 30 80 43
-21.1193 16.2208 16.334 40 122 45
-22.3932 9.13285 15.9617 56 146 67
-22.4817 8.03461 15.8904 33 115 49
-22.9485 7.25512 15.8902 44 119 59
-22.8876 4.25545 15.6577 39 129 65
-22.9715 1.95694 15.4959 30 124 49
-23.1112 1.48322 15.4778 35 133 66
-23.0055 -0.992186 15.2791 52 153 72
-23.2408 -1.3851 15.279 37 137 61
-23.5522 -6.51859 14.933 50 148 64
-23.643 -7.64689 14.8598 37 139 47
-22.7186 -11.5083 14.4549 54 157 84
-22.9509 -13.1328 14.3621 42 141 67
-23.0927 -13.6172 14.3435 40 142 69
-21.5879 15.4487 15.8822 44 127 60
-22.284 14.2863 15.882 47 135 67
-22.748 13.5114 15.8818 40 122 41
-22.4039 10.3111 15.5972 55 155 69
-22.9976 6.70768 15.4001 35 119 62
-22.9923 5.52494 15.3102 49 144 80
-23.0315 3.78613 15.184 45 147 69
-22.9204 0.126415 14.894 52 171 84
-23.2904 -1.9411 14.7846 48 164 80
-23.3305 -3.70447 14.6566 54 173 75
-23.4209 -4.82735 14.5833 57 165 74
-23.1937 -13.5276 13.8985 45 156 77
-23.3812 -14.584 13.8424 62 183 92
-23.6653 -15.5545 13.8049 62 183 87
-23.757 -16.7014 13.7299 63 185 88
2.46586 21.3479 12.8377 27 80 42
-21.1284 16.2264 15.4308 43 140 67
-22.3703 12.0325 15.2695 34 142 59
-22.4145 11.4866 15.2337 43 152 69
-22.5854 8.12016 14.9999 42 157 65
-22.9576 7.26074 14.9817 52 159 74
-23.0468 6.1597 14.9094 47 153 69
-23.0808 3.23522 14.6919 68 170 88
-23.1704 2.12615 14.619 35 136 58
-23.0702 0.850717 14.5096 58 175 90
-23.4353 -2.41448 14.308 62 180 82
-23.4707 -5.38676 14.0869 41 156 59
-23.461 -7.81087 13.9018 60 178 83
-22.8242 -11.4164 13.5477 58 174 79
-23.1074 -12.3833 13.5102 65 182 88
33.5885 22.6836 8.51513 27 65 37
-21.5969 15.4543 14.9791 48 160 84
-22.293 14.2919 14.9788 53 174 83
-22.757 13.517 14.9787 48 169 78
-22.7457 11.1798 14.7989 51 171 78
-22.5013 9.22087 14.6183 59 179 89
-23.096 5.61123 14.4183 56 178 82
-22.996 4.345 14.309 63 182 91
-23.2198 1.57364 14.1259 59 178 91
-22.9744 -0.425528 13.9421 63 184 92
-23.2996 -1.93543 13.8682 67 181 84
-23.3397 -3.69878 13.7387 63 176 85
-23.4301 -4.82166 13.6645 62 178 88
-23.3296 -6.11534 13.553 59 177 86
-23.511 -8.37332 13.4037 60 158 91
-23.3145 -9.76198 13.2728 71 164 94
-22.9758 -10.6726 13.1602 62 162 82
-23.0666 -11.8106 13.0849 64 169 87
-23.7709 -15.4614 12.8958 59 184 80
-23.7663 -16.6957 12.801 61 185 81
3.38349 22.3986 11.8652 27 75 36
-22.7946 10.6362 14.3099 62 178 92
-23.0611 7.34648 14.0914 64 171 93
-23.2397 5.14299 13.9451 68 180 90
-23.0847 2.05003 13.6878 60 179 80
-23.0794 0.856379 13.5955 62 177 74
-23.209 -2.01561 13.3915 77 178 86
-23.2891 -5.54932 13.1304 68 165 72
-23.3746 -7.89005 12.9617 73 161 93
-23.415 -9.6736 12.8299 62 131 86
-23.1673 -11.7216 12.641 52 135 70
-23.4507 -12.6884 12.603 60 141 80
-23.5924 -13.1722 12.584 54 139 76
-23.6839 -14.3143 12.508 56 162 86
-23.4309 -17.619 12.2219 59 184 85
-22.849 11.2643 13.9118 64 177 92
-22.8434 10.092 13.8205 64 173 93
-22.7879 8.28834 13.6741 66 173 94
-23.3438 6.40939 13.6004 65 162 96
-23.1944 4.51267 13.4348 66 157 77
-23.1445 3.8786 13.3794 51 139 58
-23.2586 -2.57235 12.8958 67 153 75
-23.1582 -3.8603 12.7834 52 127 58
-23.2484 -4.9839 12.7083 52 135 54
-23.0972 -6.92708 12.5387 52 129 60
-23.1877 -8.05711 12.4631 57 137 69
-23.1772 -10.4953 12.2735 42 120 49
-23.5876 -15.6304 11.9296 63 182 100
-23.4863 -16.9533 11.8144 64 187 99
7.55315 25.0863 10.5982 26 60 34
7.1022 24.8407 10.6374 19 49 27
-22.3066 14.3003 13.6241 48 142 61
-22.7706 13.5254 13.6239 61 165 77
-22.798 9.46784 13.3123 60 150 71
-23.12 7.98158 13.2385 63 147 86
-23.0044 3.16512 12.8493 48 126 52
-23.2835 2.21917 12.812 45 130 56
-23.3733 1.1083 12.7373 57 132 79
-23.0384 0.222988 12.6252 46 118 70
-23.2683 -1.36808 12.5313 42 134 72
-23.2026 -5.62787 12.1919 42 115 61
-23.4242 -9.66788 11.9067 46 133 55
-23.3233 -10.9748 11.7922 41 128 43
-23.6521 -12.5098 11.7154 34 123 55
-23.2012 -17.2142 11.2916 64 189 91
-21.847 15.078 13.1726 55 144 61
-22.8525 10.0976 12.9144 59 138 71
-23.2189 8.06425 12.8032 46 130 63
-23.4967 7.12555 12.766 43 121 51
-22.9141 3.08648 12.3745 45 124 52
-23.0719 -3.9383 11.8462 44 128 67
-23.2576 -4.9782 11.7891 35 113 63
-23.2021 -6.83676 11.6366 32 115 46
-23.1969 -8.0514 11.5411 39 134 52
-23.4695 -11.4546 11.3106 42 138 51
-23.3634 -13.9949 11.0983 45 157 72
-23.6016 -14.3926 11.0982 49 164 75
-23.3076 -15.8871 10.9432 61 182 86
7.54376 25.0921 9.65966 22 51 21
6.74708 24.5226 9.71919 17 41 14
5.81527 23.4731 9.75869 24 65 35
-22.3156 14.3059 12.7209 31 110 40
-22.7796 13.531 12.7208 49 127 72
-22.63 11.661 12.5542 39 121 48
-22.8071 9.47345 12.4055 34 115 52
-22.8515 8.92527 12.3682 41 127 60
-22.8238 3.00785 11.8995 40 123 56
-23.2876 1.0319 11.8049 33 115 44
-23.0924 -0.32878 11.6725 44 137 66
-22.9864 -2.81371 11.4633 56 155 88
-23.1667 -5.05936 11.3104 35 133 71
-23.252 -7.39848 11.1377 39 149 67
-23.6203 -10.7115 10.9256 47 162 64
-23.6157 -11.9346 10.8288 47 164 68
-23.8031 -12.9876 10.7706 57 176 80
-23.51 -14.4768 10.6152 59 179 85
-21.8561 15.0836 12.2695 52 139 76
-22.7334 2.92913 11.4243 43 142 62
-23.2024 2.14593 11.4241 50 134 69
-23.0917 -1.5253 11.1193 48 163 80
-23.2165 -5.61932 10.8122 52 166 79
-23.2113 -6.83106 10.7157 50 168 75
-23.4933 -7.7909 10.677 54 174 80
-23.6799 -8.83681 10.6188 60 178 87
-23.0675 -17.9573 9.81729 61 182 87
7.50324 24.5383 8.68076 15 38 13
6.49677 24.126 8.78129 15 39 18
5.35635 23.2343 8.86141 23 66 35
3.66637 22.1795 9.00136 28 72 38
-22.3247 14.3115 11.8177 35 139 67
-22.7887 13.5366 11.8176 43 149 78
-22.4066 12.0549 11.6492 38 143 74
-22.4005 10.8835 11.5553 53 151 85
-22.5832 9.86808 11.4988 36 121 60
-22.6719 8.77159 11.4233 33 129 63
-22.8776 2.45869 10.9487 57 168 86
-23.1518 0.316671 10.8147 36 142 73
-22.9507 -2.2479 10.5842 59 178 91
-23.0857 -3.92977 10.4684 58 175 86
-23.1308 -4.49146 10.4297 63 180 86
-23.5385 -9.57099 10.0799 66 175 89
-23.3824 -12.7577 9.80589 66 175 89
-23.6155 -14.384 9.70747 61 178 84
-23.418 -15.791 9.56947 61 182 86
2.59377 22.4116 8.69425 26 73 40
-21.8651 15.0892 11.3663 49 164 70
-22.6979 3.48921 10.5498 61 180 82
-23.0218 1.98805 10.4729 64 174 88
-22.9499 -3.4493 10.0286 61 177 92
-23.2257 -5.61362 9.89233 57 154 63
-23.3162 -6.74075 9.81426 56 154 69
-23.5982 -7.70031 9.7751 61 161 79
-23.7847 -8.74594 9.71635 72 172 90
-23.4928 -10.2209 9.55955 56 147 74
-23.392 -11.5292 9.4415 66 164 85
-23.721 -13.0655 9.36249 56 148 75
-23.0768 -17.9515 8.88606 60 183 85
7.25261 24.1413 7.74172 13 43 27
6.45579 23.5721 7.80268 12 43 24
5.45128 23.1614 7.9042 21 62 35
-22.3337 14.3171 10.9146 63 183 96
-22.7977 13.5422 10.9144 60 177 92
-22.2712 11.3568 10.6682 61 176 95
-22.5481 10.4212 10.6301 60 178 93
-22.498 9.79432 10.573 56 175 90
-22.8697 8.93651 10.5538 53 167 83
-22.3287 4.35604 10.113 69 172 87
-23.161 0.322336 9.90016 65 179 81
-22.814 -2.96907 9.58905 55 160 77
-22.9994 -4.00777 9.53037 66 175 85
-23.14 -4.48577 9.51076 73 171 82
-23.5478 -9.56528 9.15697 64 141 67
-23.3005 -11.6125 8.95925 56 135 62
-23.3916 -12.7519 8.87984 51 131 62
-23.3866 -13.9805 8.78038 51 146 78
-23.4273 -15.7852 8.64073 63 182 91
-23.0869 -16.7099 8.52078 64 183 91
-21.6422 15.4822 10.4632 64 170 88
-22.8687 7.76145 10.0042 55 141 90
-22.7071 3.49486 9.63742 51 139 72
-22.8913 2.46717 9.57912 64 158 86
-23.031 1.99371 9.55966 41 142 61
-22.959 -3.44361 9.11033 59 169 84
-23.421 -6.65052 8.91326 51 125 60
-23.6074 -7.69461 8.85393 43 118 51
-23.794 -8.74023 8.79452 42 123 50
-23.6294 -14.3754 8.31671 61 172 94
33.9433 20.6255 2.8998 23 61 35
5.33758 23.2459 6.9876 22 62 30
2.30366 23.2129 7.39587 24 68 34
-21.1826 16.2599 10.0118 70 169 97
-22.2803 11.3624 9.76227 46 127 65
-22.4629 10.3476 9.70449 57 159 72
-22.4569 9.17221 9.60811 51 145 67
-22.5454 8.074 9.5308 57 133 94
-22.7788 7.68426 9.53073 48 126 87
-22.3945 6.1813 9.35645 51 142 73
-22.1985 4.83403 9.22037 46 140 46
-23.215 -0.22928 8.94635 63 165 79
-22.9186 -2.88 8.69068 42 130 60
-23.1492 -4.48008 8.59181 62 146 84
-23.1944 -5.04228 8.55221 46 117 66
-23.557 -9.55956 8.23404 41 128 59
-23.2189 -10.4695 8.11424 42 128 64
-23.3047 -12.8327 7.93372 42 124 63
-23.3959 -13.9748 7.85321 42 150 66
6.23236 23.7382 6.43665 20 53 22
-21.8832 15.1004 9.55999 44 114 78
-22.3473 14.3255 9.55984 48 122 73
-22.8113 13.5506 9.55969 47 123 71
-22.2094 6.02295 8.86223 43 138 68
-22.2474 4.28334 8.72516 48 130 68
-22.6213 3.41914 8.70543 47 123 65
-22.9004 2.47283 8.66608 37 122 52
-23.1798 1.52565 8.6267 47 152 68
-23.1193 -1.50827 8.37038 54 144 75
-23.1087 -3.91555 8.17211 63 162 95
-23.6166 -7.6889 7.93277 28 133 46
-23.8032 -8.73452 7.8727 40 146 62
-23.026 -11.8625 7.51107 46 153 71
-23.8311 -14.1957 7.42996 66 183 90
-23.492 -15.1161 7.30851 63 183 89
33.7002 20.798 1.96294 22 58 28
2.19124 23.2971 6.48407 22 61 33
-22.1006 11.2101 8.81749 35 123 67
-22.2831 10.1947 8.75901 54 162 86
-22.3715 9.09821 8.68096 55 159 82
-22.6935 7.60987 8.60269 47 131 81
-22.0241 5.86441 8.36751 43 144 71
-22.9278 -2.87431 7.77283 39 138 66
-23.3443 -5.51514 7.61274 57 170 85
-23.4348 -6.64197 7.53251 41 154 69
-23.5663 -9.55385 7.3111 47 168 74
-22.8891 -11.3763 7.0685 54 176 84
-23.6892 -14.9388 6.88521 64 182 93
-22.3563 14.3311 8.65668 50 139 71
-22.8204 13.5562 8.65653 32 114 50
-22.5148 8.6318 8.20735 48 155 79
-22.3516 4.37017 7.83255 44 151 77
-22.6305 3.42479 7.79282 48 152 79
-22.8146 2.39681 7.7332 43 157 67
-23.1389 0.893182 7.65355 54 174 79
-22.9774 -3.43223 7.27373 58 174 82
-23.0225 -3.99355 7.23353 61 179 84
-23.163 -4.47154 7.21338 61 179 82
-23.9081 -8.64367 6.97107 59 181 79
-22.939 -11.943 6.56485 60 184 84
-23.3187 -12.8241 6.5443 60 182 86
-23.5566 -13.2215 6.54422 61 183 87
-23.3595 -26.4169 5.42622 64 186 89
2.07898 23.3811 5.57271 17 57 30
-21.8968 15.1088 8.20525 38 141 60
-22.2041 11.2947 7.93076 48 154 79
-22.3866 10.2796 7.87167 55 168 84
-22.3806 9.10383 7.7731 62 180 86
-22.608 7.5354 7.67422 49 168 79
-22.2231 6.03141 7.4959 57 177 86
-22.8639 1.84414 7.23658 55 178 80
-23.0037 1.37022 7.21655 54 176 78
-22.9929 -1.02385 7.01604 60 181 85
-22.8416 -2.95201 6.83482 61 180 83
-23.3535 -5.50945 6.69312 60 180 80
-23.8215 -7.51076 6.59158 60 180 79
33.6854 20.8071 0.48996 17 31 8
-18.653 20.5359 7.75473 52 159 78
-22.8294 13.5617 7.75336 47 171 69
-22.6183 8.71717 7.31909 62 182 87
-22.8181 1.20892 6.7194 57 176 76
-22.8573 -0.545384 6.57824 62 182 81
-22.7116 -1.26951 6.49742 62 182 84
-22.6552 -3.11609 6.33524 65 182 85
-23.0317 -3.98786 6.3148 64 179 84
-23.0767 -4.54971 6.27411 65 181 83
-23.4033 -6.06975 6.19255 62 180 81
-23.4241 -12.7319 5.63865 61 180 87
-23.3689 -26.4111 4.48771 62 184 88
-23.3638 -27.6729 4.38154 60 182 85
23.7458 21.9821 1.48824 20 46 20
22.355 21.8056 1.66812 22 52 23
1.38522 22.7442 4.68262 25 65 38
-22.1251 12.3926 7.10408 62 184 88
-22.3013 10.2059 6.945 62 182 86
-22.3897 9.10946 6.86523 61 181 86
-22.4782 8.01096 6.78531 63 182 90
-22.7561 7.07089 6.74523 61 182 85
-22.4158 5.0129 6.52466 62 183 79
-23.3577 -6.71509 5.67102 63 181 84
-22.9584 -10.7098 5.27945 61 177 82
-23.0999 -11.1927 5.25869 62 178 83
-23.3685 -27.67 3.91171 59 180 80
-23.4976 -31.9716 3.56832 61 187 82
-18.6621 20.5415 6.85157 53 161 75
-22.8384 13.5673 6.8502 60 183 91
-22.1233 11.2241 6.55158 62 182 87
-22.666 6.99344 6.27056 62 182 87
-22.6254 -1.34676 5.56024 61 180 80
23.152 21.8183 0.590566 14 32 14
22.3209 21.235 0.658626 14 31 15
-22.1469 14.7325 6.39885 61 186 83
-22.2285 12.4768 6.2188 66 188 92
-22.3987 9.11508 5.95737 62 183 82
-22.4873 8.01659 5.8766 60 181 81
-22.2413 6.04269 5.67413 62 182 85
-23.3266 -28.3421 2.9072 63 182 88
-23.507 -31.9657 2.62496 64 181 79
-23.5486 -33.833 2.47226 84 143 59
21.7338 21.0691 0.244807 18 34 13
8.58378 21.3776 2.14193 22 59 30
-18.6711 20.5471 5.94841 51 162 77
-22.8475 13.5729 5.94704 62 182 87
-22.2267 11.3087 5.66539 62 183 82
-22.3149 10.2143 5.58449 65 187 84
-23.1412 -27.2582 2.50229 62 182 82
-22.929 -31.2461 2.13158 64 178 83
19.7919 21.3043 0.0599129 16 37 16
-22.049 12.3252 5.27325 68 185 89
-23.2383 -28.428 1.94501 68 177 79
-23.7588 -32.3646 1.68153 74 161 71
-23.8522 -33.5469 1.59338 93 144 63
-23.8988 -34.139 1.54924 102 134 60
10.441 21.1555 0.91028 19 40 22
-23.392 -27.6555 1.56255 67 158 69
-23.8238 -29.1402 1.49651 65 151 62
-22.8403 -31.333 1.16588 66 146 61
-6.45482 21.8187 2.9356 24 68 33
-18.6847 20.5555 4.59366 55 166 79
-21.701 15.5186 4.59267 60 181 82
-22.9894 -31.8277 0.671657 64 113 50
-23.3765 -32.7308 0.649255 81 120 50
-23.5675 -33.8213 0.582288 101 126 57
-23.4477 -28.2359 0.578494 56 98 34
-5.82838 21.9086 1.92965 22 62 35
-18.6937 20.5611 3.6905 53 163 77
-21.71 15.5242 3.68951 64 185 84
-22.4061 14.3618 3.68928 62 181 82
-22.1175 12.9604 3.52428 57 180 75
-23.5451 -29.4072 0.0190449 55 99 31
-17.5427 22.504 2.78772 29 85 46
-18.2387 21.3416 2.78749 45 129 82
-18.7028 20.5667 2.78734 64 170 102
-21.255 16.3047 2.7865 63 175 82
-21.719 15.5298 2.78635 61 172 76
-20.3314 17.8573 2.33522 69 167 69
-18.2478 21.3472 1.88432 58 129 77
-18.7118 20.5723 1.88417 107 178 117
-19.4079 19.4099 1.88394 66 137 63
-20.568 17.4726 1.88356 62 131 46
-21.264 16.3103 1.88333 61 121 37
-21.4961 15.9228 1.88326 58 115 35
-20.1085 18.2504 1.43213 33 103 81
-18.2568 21.3528 0.98116 58 93 75
-18.7209 20.5779 0.981008 103 144 147
-19.4169 19.4155 0.98078 63 109 120
-20.577 17.4782 0.980398 54 111 109
-21.2731 16.3159 0.98017 55 122 96
-20.1175 18.256 0.528973 94 121 104
-19.321 20.9236 146.062 21 33 34
-19.9716 19.2384 146.053 20 34 38
-19.1631 21.3489 145.612 19 35 36
-19.4884 20.5063 145.608 19 34 35
-19.9764 19.2424 145.602 21 35 39
-20.139 18.8211 145.6 20 34 37
-18.8473 22.1996 144.713 21 33 34
-19.1726 21.357 144.709 20 33 31
-19.4979 20.5144 144.705 21 36 32
-21.1244 16.3014 144.684 21 35 37
-19.1821 21.3652 143.806 19 35 32
-19.5074 20.5226 143.802 23 40 43
-19.9954 19.2586 143.795 75 97 74
-20.3207 18.4161 143.791 87 99 71
-17.4603 21.456 143.517 21 35 27
-19.1916 21.3733 142.903 24 46 45
-19.5169 20.5307 142.898 63 94 77
-20.1675 18.8455 142.89 134 181 133
-19.847 19.6921 142.443 92 130 126
-20.0096 19.2708 142.441 102 144 137
-20.9855 16.743 142.428 93 138 156
-19.5264 20.5388 141.995 77 112 98
-20.0144 19.2749 141.989 81 112 95
-20.3397 18.4323 141.985 87 116 98
-20.9903 16.7471 141.977 83 105 95
-21.1529 16.3258 141.975 82 102 92
-19.2059 21.3855 141.548 68 100 86
-19.8565 19.7002 141.54 84 113 66
-19.2154 21.3936 140.645 82 114 130
-19.5407 20.551 140.641 82 121 129
29.604 17.1941 144.722 17 30 28
-19.8707 19.7124 140.185 104 152 151
-20.5645 -34.3742 141.739 32 47 40
-21.2342 -35.0255 141.698 27 42 35
-18.8996 22.2443 139.746 73 103 104
-19.2249 21.4017 139.742 74 106 111
-19.5502 20.5591 139.738 79 118 118
-20.3634 18.4526 139.727 152 212 196
31.3927 19.0536 143.841 32 51 45
28.8164 17.5897 143.656 24 32 28
-19.8802 19.7205 139.282 103 154 147
-21.0188 16.7714 139.267 151 210 189
-20.5744 -34.3658 140.803 109 139 79
-18.9091 22.2524 138.843 73 103 114
-19.2344 21.4098 138.839 73 103 109
-19.5597 20.5672 138.834 82 118 118
-20.3729 18.4607 138.824 146 200 184
-20.5217 -33.8511 140.325 117 125 63
30.8136 18.7946 142.812 77 107 90
29.986 18.6555 142.744 84 121 99
28.4996 17.2039 142.656 45 75 70
-20.0524 19.3074 138.377 120 170 162
-21.0283 16.7795 138.364 149 205 188
-23.1427 11.3026 138.337 148 204 190
-24.2813 8.35352 138.323 154 206 190
-20.7528 -34.7941 139.864 153 200 189
-21.5908 -35.8815 139.822 179 229 213
-19.5691 20.5753 137.931 81 120 116
-20.2198 18.8901 137.923 137 193 181
-21.1957 16.3623 137.91 148 203 182
-24.286 8.35758 137.871 155 208 187
-22.2644 -14.8726 138.703 164 223 202
-22.2698 -15.9369 138.732 163 222 200
-22.8193 -16.6599 138.705 165 222 202
-20.7533 -33.6953 139.366 182 252 248
28.6664 17.6717 141.675 108 149 137
-18.551 20.5338 137.568 73 107 106
-20.0619 19.3155 137.473 123 173 159
-21.851 14.6812 137.451 145 201 183
-22.7727 -17.2227 138.265 160 214 200
-22.6754 -19.4269 138.335 159 215 200
-20.9526 -27.0134 138.694 161 222 201
-20.6517 -34.8597 138.94 174 242 220
-20.989 -35.7334 138.935 176 245 219
-21.5934 2.12902 137.369 153 208 197
-21.8908 -3.45258 137.498 153 208 190
-22.7654 -5.02872 137.468 152 212 185
-22.4971 -15.792 137.788 160 217 194
-22.829 -16.6516 137.784 161 215 198
-22.6173 -17.855 137.835 159 217 199
-22.4622 -19.5614 137.896 157 212 195
-22.3642 -21.7743 137.965 157 217 191
-20.6523 -33.7606 138.441 155 218 192
-21.4949 -35.9431 138.431 170 222 188
-18.4448 23.5366 136.591 68 98 104
-17.9637 21.75 136.68 70 100 106
-19.746 20.1662 136.574 96 139 132
-21.2099 16.3745 136.556 144 198 185
-21.8605 14.6893 136.547 123 162 150
-22.37 9.32299 136.652 87 154 152
-21.7059 2.19636 136.902 152 202 185
-21.7259 -1.97523 137.015 140 201 171
-21.9984 -2.33708 137.002 143 206 184
-22.1683 -3.81024 137.028 147 205 184
-22.8328 -6.56598 137.048 156 214 193
-22.9465 -7.55128 137.065 155 214 189
-22.3525 -18.5572 137.416 162 216 200
-22.4154 -20.1272 137.454 153 212 196
-22.3447 -27.7329 137.668 153 209 188
-21.4998 -35.9389 137.963 164 217 189
-21.0543 3.90087 136.455 152 210 191
-21.9826 1.83869 136.434 114 147 128
-22.8376 -6.56187 136.59 155 214 196
-22.2892 -15.9203 136.889 154 214 194
-22.5125 -16.8489 136.895 153 212 193
-22.5181 -17.9155 136.924 158 216 198
-23.7911 -30.0402 137.146 150 204 178
-20.946 -35.2098 137.522 157 212 199
-21.2194 16.3826 135.653 148 196 174
-22.0326 14.2761 135.642 53 88 66
-22.3795 9.33113 135.746 46 94 96
-21.7619 3.79419 135.945 148 203 187
-21.931 2.33099 135.97 110 149 125
-22.1002 0.865697 135.995 135 171 162
-22.0595 -1.77392 136.069 87 143 105
-22.5802 -18.4108 136.471 157 217 197
-22.3104 -19.118 136.512 154 215 197
-22.3159 -20.1884 136.54 151 212 197
-22.6834 -27.5095 136.706 158 212 193
-22.9083 -28.4476 136.712 156 207 193
-23.8539 -30.5414 136.691 149 206 185
-20.0856 19.3358 135.216 125 174 166
-21.8747 14.7015 135.193 44 96 93
-22.1721 -1.70551 135.602 84 125 69
-22.4554 -4.15945 135.644 119 149 131
-22.8414 -5.50399 135.648 126 169 164
-22.853 -7.6048 135.702 132 176 148
-22.8588 -8.65747 135.73 103 146 128
-21.9461 -10.8068 135.861 131 181 189
-22.4078 -15.8437 135.956 120 175 148
-22.5222 -16.8406 135.973 126 187 159
-22.6367 -17.8384 135.99 149 209 184
-22.4579 -25.4883 136.207 147 205 189
-21.346 -35.4898 136.561 152 211 197
-16.3574 21.9128 134.997 49 68 84
-22.6028 9.46152 134.82 78 127 124
-22.5522 8.91677 134.838 57 103 100
-22.852 -6.54953 135.218 113 151 160
-22.4879 -9.41257 135.322 88 135 108
-22.2683 -19.6794 135.607 135 182 156
-22.1645 -20.8204 135.645 145 194 169
-22.17 -21.8936 135.673 121 178 149
-22.2437 -25.6263 135.764 142 198 200
-22.6932 -27.5012 135.777 152 211 204
-22.7508 -28.0061 135.786 150 213 204
-23.645 -30.6779 135.784 146 208 197
-20.0951 19.3439 134.312 122 172 159
-21.8842 14.7096 134.29 43 93 51
-22.4375 1.06856 134.597 112 134 140
-22.5505 0.0913207 134.613 105 133 138
-22.4485 -1.01487 134.65 108 141 117
-22.7432 -5.56105 134.744 99 138 134
-22.6409 -6.67665 134.781 103 139 146
-22.7546 -7.66248 134.797 102 148 133
-22.5947 -18.3984 135.087 95 128 112
-23.1602 -31.5428 135.38 147 200 198
-22.6692 -32.4145 135.442 148 203 188
-22.1767 -33.2887 135.504 146 205 184
-21.4666 -35.4073 135.615 146 206 195
-22.5055 9.40857 133.925 70 111 108
-22.6179 8.44105 133.94 35 87 78
-22.8373 7.53423 133.946 113 181 176
-21.945 3.38595 134.122 147 206 178
-22.3892 -9.47081 134.414 108 158 98
-22.4739 -15.2651 134.555 108 157 97
-22.6455 -16.7596 134.58 110 145 91
-22.76 -17.7571 134.596 85 111 105
-22.4962 -19.5324 134.662 88 130 133
-22.1743 -20.8121 134.72 121 172 147
-22.289 -21.8152 134.737 109 162 132
-22.5132 -22.749 134.743 145 186 201
-22.8125 -27.4212 134.838 123 158 140
-21.1345 -34.5303 135.151 151 208 186
-21.8937 14.7177 133.386 18 64 35
-22.436 3.15426 133.635 148 205 183
-22.5545 1.14022 133.676 144 196 185
-22.7751 0.226943 133.682 143 193 182
-22.5713 -1.98628 133.754 136 187 182
-22.4856 -6.24139 133.867 122 166 146
-22.6562 -7.72014 133.891 129 178 129
-22.7131 -8.21355 133.899 120 168 115
-22.4955 -18.4591 134.174 92 133 121
-22.3103 -25.0389 134.354 96 124 123
-22.6559 -28.0653 134.403 95 130 136
-23.17 -31.5345 134.45 145 206 202
-22.679 -32.4061 134.51 145 202 187
