ply
format ascii 1.0
element vertex 1307
property float x
property float y
property float z
property uchar red
property uchar green
property uchar blue
end_header
-26.0276 -19.7986 74.0304 200 217 252
-27.3893 -20.2214 74.056 204 222 255
7.03901 26.3058 74.6318 122 115 146
6.82253 25.7986 74.6149 121 115 146
-27.9999 14.8734 75.2741 87 134 169
-23.6256 -18.3408 73.5419 205 218 248
-25.7268 -19.3695 73.5641 200 217 248
-26.4629 -19.9737 73.5602 204 222 255
-27.6533 15.1657 74.8244 80 126 157
-28.3514 14.5927 74.8207 123 167 205
-27.6711 6.1163 74.3873 212 221 255
-22.6948 -18.0913 73.045 203 217 246
-24.4301 -18.8187 73.0696 207 215 250
-26.898 -20.1487 73.0903 203 221 255
6.10082 25.2223 73.684 119 112 140
-5.37145 21.8488 73.9202 45 75 71
-27.6118 6.01226 73.922 211 221 255
-23.7614 -18.0874 72.6052 200 212 242
-24.866 -18.9941 72.5994 206 217 245
-25.6672 -19.4779 72.6037 202 220 244
-10.7413 25.2895 73.8224 50 84 81
-16.6144 22.8325 73.9091 49 88 78
-27.6582 15.1775 73.9213 75 116 150
-28.3563 14.6044 73.9176 128 166 210
21.4264 25.0598 72.1942 44 46 58
-26.9625 15.7564 73.4734 68 116 129
-24.7629 -18.1976 71.6823 202 215 237
-25.6724 -19.4655 71.6512 202 219 243
14.3926 22.8672 71.8676 119 113 140
-25.0685 -18.6138 71.1959 205 219 241
-27.6655 15.1951 72.5666 66 101 149
-28.3637 14.622 72.5629 130 163 219
-25.4391 -18.9097 70.718 203 216 245
14.3876 22.8794 70.928 117 113 141
-3.10134 24.2376 71.6603 45 74 80
-8.62333 25.3156 71.9256 47 79 80
4.02055 25.0431 70.9704 118 112 128
0.733161 22.5086 70.9618 50 82 79
-27.6704 15.2068 71.6634 58 93 140
-28.3685 14.6337 71.6598 129 161 215
-25.5736 -18.6563 69.7838 201 216 245
1.08815 22.8081 70.5012 50 83 81
-4.69292 25.042 70.8464 46 80 77
-7.72577 25.5909 70.994 47 83 79
-5.29924 25.9949 70.4642 49 83 80
-6.75806 25.7559 70.5087 49 81 81
-8.96006 25.8568 70.6012 47 85 78
-10.342 25.5144 70.6371 48 87 82
-27.6753 15.2185 70.7603 67 101 146
-28.3734 14.6455 70.7566 132 159 214
-27.6802 15.2302 69.8572 59 95 142
-28.3783 14.6572 69.8535 129 165 216
-6.08858 28.0791 69.243 50 82 79
-8.13236 26.2428 69.2233 48 88 75
-7.19166 28.1321 68.8367 48 83 78
-7.6959 27.2433 68.8069 48 86 79
-8.81585 26.4824 68.8101 50 88 79
-9.58406 26.0101 68.8151 50 88 81
-27.685 15.242 68.954 57 92 137
-28.3832 14.6689 68.9503 129 164 215
0.646432 22.6578 67.7338 49 86 82
-19.6589 21.8382 68.5446 44 70 76
-20.7061 20.9786 68.5391 44 67 76
-21.0552 20.692 68.5373 43 66 75
-26.9894 15.8209 68.5061 58 92 114
-7.32878 28.3517 67.9461 49 86 79
-8.03072 27.7755 67.9424 51 88 82
-6.56304 28.83 67.4867 49 88 81
-8.69071 28.8185 67.5783 50 88 81
-27.6924 15.2596 67.5993 56 89 133
-28.3905 14.6865 67.5956 131 160 211
-7.37908 29.2731 67.0945 51 90 81
-8.12435 29.6058 67.1472 48 87 79
-21.0625 20.7096 67.1826 32 48 62
6.8458 25.8064 65.7974 121 120 147
5.34722 25.5639 65.8494 117 114 142
-7.99533 29.4051 66.6761 50 80 78
-8.82675 29.0371 66.6908 50 75 83
-9.11123 28.6463 66.6798 49 71 82
-21.414 20.4289 66.7292 30 44 57
-27.6973 15.2713 66.6962 52 85 123
-28.3954 14.6982 66.6925 127 155 202
-22.4637 19.5752 66.2721 28 41 55
5.48873 26.1889 64.9547 121 114 142
-8.85396 28.2438 65.7364 41 57 66
-21.4189 20.4407 65.826 28 39 53
-27.3531 15.5696 65.7949 45 72 102
-28.4003 14.71 65.7894 123 156 198
25.3947 25.2013 63.5104 74 97 99
5.84899 27.3123 64.5453 112 114 146
-7.25689 29.0897 65.2619 43 61 63
-7.67346 28.9055 65.2696 41 58 62
-22.1195 19.8735 65.3708 29 41 59
-26.3083 16.435 65.3488 42 65 87
-7.19331 28.992 64.7987 40 57 68
-8.37702 28.3358 64.8124 33 53 65
-20.3766 21.312 64.9284 29 41 52
-21.4238 20.4524 64.9229 27 38 52
-22.471 19.5928 64.9174 29 40 53
-26.6598 16.1544 64.8954 38 61 82
-27.3579 15.5813 64.8917 40 65 94
-28.7542 14.4351 64.8844 164 183 212
25.2354 25.4321 62.5827 58 94 85
5.41082 26.3132 63.5768 83 106 98
5.77108 27.4362 63.1692 65 98 90
-4.69727 26.7684 63.6269 37 69 66
-7.68081 28.9231 63.9091 41 72 73
-8.31616 28.2439 63.8956 44 73 71
-26.6647 16.1661 63.9923 40 70 81
-27.3628 15.593 63.9886 40 72 90
-28.7591 14.4469 63.9813 163 183 198
25.2302 25.4444 61.6343 60 93 90
5.40582 26.3253 62.6517 64 96 90
-15.1479 25.6276 63.6012 29 41 55
-20.733 21.0431 63.5719 29 40 56
24.7841 25.2588 61.1691 59 93 88
5.48479 27.8713 62.2869 63 97 87
5.33044 26.4435 61.7371 61 95 93
-14.9265 24.4151 62.6052 29 38 51
-15.2422 23.2127 62.5405 28 36 49
-20.3888 21.3413 62.6706 26 41 55
-26.672 16.1837 62.6376 35 63 73
-27.3702 15.6106 62.6339 36 66 75
-6.93783 26.0781 61.8641 37 52 60
25.22 25.469 59.7373 60 93 87
5.39582 26.3493 60.8014 63 97 93
-26.6769 16.1954 61.7344 33 72 75
-27.375 15.6223 61.7308 33 69 72
18.909 26.2794 59.6415 53 80 81
-4.5281 25.6738 60.8001 34 45 56
-5.28411 26.0145 60.8622 33 45 56
-6.52383 26.2744 60.9436 31 43 54
5.46122 26.255 59.8653 62 97 84
-11.37 22.9412 60.5064 38 57 62
-20.7476 21.0782 60.8625 38 67 71
-26.6818 16.2071 60.8313 48 117 83
-27.3799 15.6341 60.8276 53 117 83
5.119 28.4349 59.5729 60 96 86
-25.2879 17.3591 60.3871 52 126 92
18.9763 26.1896 58.2194 43 63 58
4.88143 25.4669 58.9136 59 94 88
-25.6395 17.0785 59.9337 64 143 96
-26.6867 16.2189 59.9282 63 143 95
-27.3848 15.6458 59.9245 67 134 93
-28.0829 15.0727 59.9208 71 130 97
22.0922 25.0055 57.4973 56 90 80
5.52412 26.1667 58.4659 61 97 87
-20.7549 21.0958 59.5078 49 82 81
-25.991 16.7978 59.4803 67 133 92
23.798 25.0402 56.9343 57 92 83
5.38647 27.2091 58.0852 60 95 89
22.0111 25.1267 56.5638 43 58 60
5.16137 25.8851 57.5384 60 95 87
-25.6468 17.0961 58.5789 62 88 79
-26.694 16.2364 58.5734 72 94 75
-27.3921 15.6634 58.5698 90 112 108
5.58708 26.0784 57.0658 61 96 82
-9.75553 24.6321 57.8051 85 106 104
19.6273 26.0862 55.8211 50 75 64
18.5253 26.0299 55.8783 56 83 71
5.01574 26.1098 56.6365 61 94 84
4.65817 25.8163 56.6346 61 94 87
-25.6517 17.1078 57.6758 144 164 157
-26.3498 16.5347 57.6721 145 170 156
-27.397 15.6751 57.6666 132 174 145
22.5973 25.1184 55.1102 35 57 49
17.9355 26.0618 55.4431 56 80 81
25.0378 25.7549 54.5461 60 93 84
18.5202 26.0421 54.938 35 52 61
3.02197 25.7989 55.7999 61 95 91
2.30821 25.213 55.7961 59 95 87
1.73321 24.414 55.7684 63 97 93
-25.6565 17.1195 56.7727 96 162 127
-26.3547 16.5464 56.769 90 160 119
-27.4019 15.6868 56.7635 77 157 108
-28.1025 15.1196 56.3083 74 152 108
18.8145 25.6215 53.947 47 77 66
-25.6614 17.1312 55.8695 80 155 111
-26.3596 16.5582 55.8659 77 153 108
-27.4068 15.6986 55.8604 77 155 104
-28.1073 15.1314 55.4051 75 153 104
-27.7607 15.4237 54.9554 74 152 101
28.4588 23.3997 51.7829 58 89 83
-28.1122 15.1431 54.502 75 142 93
-27.768 15.4413 53.6007 60 118 78
19.0131 26.1732 51.1519 52 90 77
-28.0292 13.2048 52.5297 59 131 83
-27.8089 7.35601 52.0381 62 139 89
-27.7754 15.4589 52.246 63 139 94
-27.8114 7.36194 51.581 69 150 102
-28.395 6.56254 51.5515 68 149 102
-28.5025 5.8326 51.4981 70 151 105
-27.6493 1.51829 51.0893 74 151 96
-27.7778 15.4648 51.7944 70 150 97
-28.1269 15.1783 51.7926 69 150 97
27.4464 24.0223 48.5519 57 92 84
-28.2312 7.19338 50.6781 72 135 97
-27.9977 4.00747 50.3964 67 127 76
17.9744 26.0393 48.8518 35 55 56
-27.7827 15.4765 50.8913 68 131 94
-28.1318 15.19 50.8894 69 135 91
-28.1 13.3354 50.7308 72 138 90
-28.1105 6.9801 50.1948 62 109 87
-28.1375 1.46747 49.731 55 104 71
-27.7524 13.6286 50.2798 66 124 84
-27.7761 8.22223 49.8211 54 101 66
-27.3337 -6.60466 48.5303 57 125 80
-27.5056 -7.2471 48.4867 58 128 77
17.9694 26.0515 47.9119 45 81 68
-27.7876 15.4882 49.9881 55 114 76
-27.4704 7.68163 49.2976 49 106 59
-27.8689 6.55307 49.2267 45 101 67
-28.161 6.15275 49.2114 49 109 76
-28.145 5.20125 49.1287 50 109 79
-28.1391 15.2076 49.5347 59 118 75
-27.3665 8.41465 48.8964 58 122 73
-27.6412 7.06882 48.7981 47 116 63
-28.3009 3.629 48.5439 55 124 84
-28.285 2.67037 48.46 57 129 87
-27.8256 -6.65816 47.6229 72 149 96
-27.9977 -7.30035 47.5787 70 150 94
17.9643 26.0637 46.972 56 94 80
-26.8485 9.32691 48.4843 48 105 75
-28.335 5.54394 48.2531 64 144 91
24.779 25.3467 45.9827 59 90 80
-27.7949 15.5058 48.6334 57 134 79
-27.7078 7.19035 47.8971 69 142 83
-27.7677 -6.76131 46.6754 61 118 85
-28.3637 -7.58453 46.6429 66 141 92
-27.0992 16.0848 48.1855 65 142 91
-27.2678 9.15811 47.5836 61 139 86
-27.4972 8.65065 47.5542 66 143 83
-27.7998 15.5176 47.7303 70 148 94
-28.4315 -7.45697 45.7235 62 133 86
17.9541 26.0881 45.0923 44 59 49
-27.1041 16.0965 47.2824 70 140 100
-27.3685 11.1581 46.8566 65 121 83
-27.7484 9.09827 46.6974 65 125 73
-27.7004 -4.02102 45.5147 46 104 64
-27.8047 15.5293 46.8272 68 123 94
-26.8526 12.0647 46.4476 63 114 87
-27.4769 10.4425 46.3438 56 102 79
-25.0146 17.8274 46.3903 73 145 106
-27.109 16.1082 46.3793 64 119 83
-27.4794 10.4484 45.8885 51 98 75
-27.6427 -4.1231 44.5701 59 139 93
15.834 25.0485 43.7336 46 71 63
-25.3661 17.5468 45.9369 78 155 108
-27.8095 15.541 45.924 55 107 78
-27.2088 11.7882 45.5368 53 107 70
-28.2227 -5.91952 43.9799 74 148 97
26.1125 25.1177 42.5423 57 90 82
-27.1138 16.12 45.4761 55 108 85
-27.9445 -4.52047 43.6231 69 136 97
13.2114 23.9239 42.8753 57 93 82
-27.2406 10.0323 44.4649 57 132 81
-27.8673 8.40252 44.3575 65 146 95
-25.7225 17.2778 44.5803 79 158 112
-26.7697 16.4182 44.5748 68 144 100
-27.8169 15.5586 44.5693 68 146 92
-27.4723 9.53188 43.9781 66 142 85
-27.9313 8.51756 43.9158 67 144 93
-27.2709 -15.4142 41.619 58 127 83
-27.1212 16.1375 44.1214 74 146 103
-27.3687 10.2612 43.5831 71 142 95
-27.404 -4.55016 42.1834 52 104 65
-27.5753 -5.18928 42.1354 54 105 68
-27.6211 -6.05921 42.0563 49 105 66
-26.7984 -14.3332 41.2134 49 119 82
17.8593 26.2448 41.3486 34 48 53
-25.3783 17.5761 43.679 77 152 110
-26.7745 16.4299 43.6717 74 136 94
-27.8217 15.5703 43.6662 79 136 96
-27.7494 -5.8233 41.621 48 111 71
-28.2819 -6.76025 41.5706 54 128 78
-27.6709 -17.6165 40.4908 73 144 92
-27.126 16.1493 43.2183 66 118 76
-27.1573 -4.99627 41.19 57 127 90
-27.2964 -14.3835 40.2987 71 151 92
17.9287 26.1491 40.393 31 57 49
13.272 23.8461 40.5155 58 94 77
-25.3831 17.5878 42.7759 78 153 107
-27.8266 15.5821 42.763 49 98 75
-27.7545 -5.8112 40.6887 72 151 92
-27.1309 16.161 42.3151 53 101 76
-27.866 -6.56122 40.1571 75 144 88
-28.1311 -8.95453 39.9438 67 129 82
-28.1613 -10.8312 39.7632 74 135 89
-25.388 17.5995 41.8727 77 151 105
-27.8315 15.5938 41.8599 46 113 82
-27.2851 8.29702 41.1032 68 149 90
-27.7595 -5.79909 39.7564 66 133 88
-26.7867 16.4593 41.4138 63 135 90
-27.1358 16.1727 41.412 60 133 89
-27.7639 8.23163 40.6754 72 148 99
-28.309 -9.5883 38.9569 51 103 66
17.9932 26.0655 38.4968 55 90 74
-25.3929 17.6113 40.9696 80 154 110
-27.8364 15.6055 40.9568 68 147 92
-27.078 9.75982 40.3176 69 144 85
-27.7137 -8.75536 38.525 60 114 80
-26.0935 17.0441 40.5144 79 151 101
-26.7916 16.471 40.5107 74 142 92
-27.1407 16.1845 40.5089 73 140 92
-27.892 8.46179 39.7935 65 116 84
-27.4543 3.99865 39.313 51 113 76
-28.6448 -11.8711 37.8157 61 138 89
-27.7501 3.60191 38.8354 50 111 66
-27.7187 -8.7432 37.5886 62 135 84
21.9651 26.1191 36.7797 34 63 45
-25.4002 17.6289 39.6149 78 152 108
-27.8437 15.6231 39.6021 61 117 83
-27.7359 2.64826 38.2769 56 122 72
-28.6973 -12.7445 36.7899 71 148 94
-26.7989 16.4886 39.156 62 114 69
-27.5067 3.16909 37.8509 54 127 81
-27.9702 2.1389 37.7821 62 141 83
-27.7408 -7.73875 36.7549 72 147 89
-28.3216 -9.55789 36.6147 74 151 93
-25.4051 17.6406 38.7118 77 150 107
-27.8486 15.6348 38.6989 53 105 78
-27.4874 8.66603 37.9536 60 136 75
-27.9787 -8.26097 36.2516 70 134 91
-27.9752 -12.1353 35.8529 58 123 79
-27.1529 16.2138 38.251 58 115 73
-27.9405 14.0012 38.0848 51 121 80
-27.619 2.44318 36.8626 73 152 104
-28.5635 1.34258 36.8239 74 147 105
-27.6197 -7.95808 35.7858 59 106 67
-27.961 -13.1341 35.2771 55 119 78
-25.41 17.6523 37.8086 77 153 107
-27.8535 15.6466 37.7958 64 139 86
-27.5705 -10.9402 35.0025 55 106 79
-27.1578 16.2255 37.3479 67 144 89
-27.3679 14.8009 37.2155 70 147 92
-27.5789 13.3708 37.0825 73 149 98
-27.624 2.45515 35.9412 68 119 77
-28.4445 1.13069 35.8686 63 107 72
-27.6247 -7.94594 34.8503 52 111 66
-27.3827 -11.2855 34.4804 53 114 69
-27.8559 -12.3521 34.4068 52 120 67
-26.3628 -23.0365 33.1654 76 153 94
-24.7167 18.2371 36.9092 74 143 109
-25.4149 17.664 36.9055 80 157 111
-26.8112 16.5179 36.8982 75 146 100
-27.8584 15.6583 36.8927 74 142 97
-27.3464 -6.53798 34.5077 43 106 68
-27.9888 -8.23667 34.3806 50 128 71
-27.8585 -12.346 33.9362 65 143 77
-26.9298 -22.9672 32.7393 75 139 84
-26.1155 17.0968 36.4503 78 149 107
-27.6615 14.4188 36.2924 73 128 95
-27.6449 13.4897 36.1924 69 128 85
-27.3801 2.02046 34.952 54 110 66
-27.9687 1.21134 34.9143 47 103 56
-28.3716 0.0643547 34.8254 49 110 62
-27.7559 -7.70232 33.9497 60 143 81
-27.2607 -11.5078 33.5048 67 149 85
-26.816 16.5296 35.995 70 122 84
-27.8632 15.67 35.9895 64 110 80
-27.9308 -8.34043 33.4275 73 150 92
-26.935 -22.9548 31.7825 59 107 72
-28.4141 -24.1689 31.7748 49 115 65
26.7337 25.1171 32.0176 56 87 79
-24.7241 18.2547 35.5545 76 142 101
-25.4222 17.6816 35.5508 79 153 104
-26.1203 17.1086 35.5471 81 140 102
-27.1675 16.249 35.5416 62 105 71
-27.6498 13.5015 35.286 54 107 71
-28.19 -0.26117 33.8498 67 143 83
-27.4344 -5.41855 33.232 72 144 86
-27.5023 -12.0291 32.5262 76 142 99
-28.0397 -12.9796 32.4686 74 136 85
26.0534 25.2596 31.6134 57 89 83
25.0102 25.0944 31.6827 56 89 80
18.0348 26.0368 32.3683 50 88 71
-27.4499 2.15018 33.5859 72 149 94
-27.744 1.74582 33.5668 67 144 80
-27.7344 -5.82319 32.7462 69 129 75
-27.8728 -8.44424 32.474 71 127 81
-27.0775 -11.8418 32.0395 63 119 80
-26.7647 -22.2728 30.8836 57 108 78
24.9305 25.2099 31.2265 55 87 73
17.9576 26.1509 31.9162 51 84 67
-24.729 18.2664 34.6513 76 143 102
-25.4271 17.6934 34.6477 83 156 103
-27.9623 0.269086 32.9622 67 134 73
-27.4678 -7.26578 32.0994 61 114 73
-27.5709 -11.8993 31.6031 65 120 84
-26.592 -21.598 30.4637 59 122 76
25.5264 25.1893 30.6982 54 87 72
-26.7084 7.30312 33.1644 75 150 90
-27.5171 2.27381 32.6814 70 122 90
-27.379 -5.51521 31.8156 62 113 77
-27.5161 -8.13514 31.5399 55 105 72
-27.8738 -12.3094 31.1124 67 122 82
-28.1742 -12.7256 31.0923 61 121 77
-26.8992 -22.0167 29.9653 69 142 87
26.5681 25.3609 30.1524 55 89 77
-24.7338 18.2782 33.7482 75 144 104
-25.432 17.7051 33.7445 82 156 107
-26.8282 16.5589 33.7372 76 151 95
-28.3758 13.8797 33.5736 77 153 89
-27.1537 5.33531 32.5265 67 132 76
-27.3846 4.82285 32.4896 72 133 84
-27.8759 1.98734 32.2187 63 125 77
-27.8261 -0.913592 31.8943 63 118 69
-27.4271 -6.38037 31.2571 57 112 77
-27.6395 -11.7697 30.6805 62 127 79
-28.1767 -12.7195 30.6215 60 125 77
-26.3575 -21.0395 29.5482 71 142 82
-27.9454 -23.042 29.4627 70 147 85
25.444 25.311 29.7671 56 86 75
24.9999 25.1191 29.784 58 81 70
-27.5288 15.9917 33.2819 76 146 98
-27.8454 13.8521 33.0716 79 151 103
-27.1911 7.24395 32.2817 70 122 77
-27.7037 -1.13351 31.3956 57 108 59
-27.7567 -8.652 30.5654 57 131 78
-27.8661 -9.41426 30.4902 63 139 81
-28.3174 -23.339 28.9829 72 149 90
-24.7387 18.2899 32.845 72 145 107
-25.7859 17.4303 32.8395 85 158 108
-26.8331 16.5707 32.834 79 134 90
-27.8803 15.7111 32.8285 76 131 90
-27.5305 6.00912 31.7145 62 119 70
-27.5868 2.40342 31.3166 58 114 81
-27.4732 -0.607842 30.9704 65 124 79
-27.8602 -2.73592 30.7661 52 121 70
-26.8368 -5.54573 30.3638 56 127 75
-27.1975 -5.84181 30.3619 60 131 77
-27.306 -6.59871 30.2867 67 142 83
-28.2452 -12.5896 29.6987 75 143 82
-26.298 -21.1485 28.5742 65 111 71
-27.6456 -22.6044 28.5281 73 150 91
-27.9506 -23.0296 28.507 74 151 91
25.2846 25.5419 28.8555 57 85 73
24.4739 25.049 28.8706 45 66 56
-27.1846 16.29 32.3807 71 119 81
-27.1961 7.25583 31.3663 53 107 73
-27.5836 -1.34767 30.4331 64 137 88
-27.2277 -7.69807 29.6884 74 149 89
-27.6986 -8.756 29.6104 76 145 88
-27.8543 -10.3993 29.4393 79 142 95
-24.7436 18.3016 31.9419 78 145 107
-25.7908 17.442 31.9364 83 157 106
-26.838 16.5824 31.9309 63 112 78
-27.5361 16.0093 31.9272 58 106 72
-27.4222 3.04208 30.451 63 137 81
-26.6523 -5.87868 29.3749 76 143 87
-28.2033 -11.6916 28.8535 67 112 79
-28.8037 -12.5231 28.812 62 111 72
-26.9952 -20.832 27.7142 51 113 60
-27.475 -21.9235 27.6327 69 143 78
-25.0951 18.0209 31.4885 82 158 111
-26.1423 17.1613 31.483 80 145 99
-27.8876 15.7287 31.4738 55 109 69
-27.9086 6.68686 30.4472 64 143 88
-26.6995 -6.74556 28.8126 64 124 79
-27.6405 -8.86 28.655 72 126 80
-28.0491 -10.0369 28.5571 74 118 84
-28.2157 -22.5232 27.1515 74 153 87
13.6375 25.0316 28.4034 56 89 79
-26.9472 9.56391 30.2325 70 147 88
-27.5124 7.82147 30.0833 72 147 91
-28.0345 6.91236 30.0255 73 150 93
-26.937 -7.26729 28.3055 58 113 74
-28.0983 -10.9127 27.9914 57 107 62
-24.7509 18.3192 30.5872 77 147 103
-25.7981 17.4596 30.5817 81 158 99
-26.8453 16.6 30.5762 71 143 86
-27.5435 16.0269 30.5725 69 138 88
-27.4256 9.49795 29.8104 78 154 95
-27.7616 8.26472 29.6984 75 145 88
-28.3419 0.0299221 28.8023 64 114 67
-27.7087 -8.73167 27.7371 73 130 83
-28.5111 -12.0889 27.4223 60 125 70
-26.4725 -6.2 27.45 59 112 72
-26.942 -7.25514 27.37 56 114 69
-24.7558 18.3309 29.6841 79 144 110
-25.803 17.4713 29.6786 85 156 101
-26.8502 16.6117 29.6731 82 150 94
-27.5483 16.0386 29.6694 79 149 87
-27.4921 9.6185 28.9165 82 146 94
-27.3552 1.99853 28.0165 61 111 74
-28.2225 -0.183143 27.8408 54 113 71
-27.3061 -7.54588 26.9003 64 136 76
-27.4651 1.2639 27.4783 57 114 73
-27.6351 0.634241 27.42 52 112 69
-26.4775 -6.18786 26.5154 66 142 83
-28.0152 -9.12683 26.3109 77 153 93
-24.7607 18.3427 28.7809 76 150 113
-25.8079 17.4831 28.7754 83 150 103
-26.8551 16.6234 28.7699 71 119 80
-27.5532 16.0504 28.7663 65 120 74
-27.8079 0.00967603 26.8992 67 138 79
-27.782 -8.59121 25.8833 82 149 89
-27.9047 15.7697 28.3129 59 109 65
-27.4995 9.63627 27.5486 65 132 77
-26.8813 2.08556 26.5967 71 151 87
-27.1757 1.68084 26.5758 73 154 88
-26.9521 -7.23085 25.499 78 139 81
-27.2505 -7.64339 25.4776 77 137 86
-27.894 -9.34732 25.3348 81 136 85
-24.7656 18.3544 27.8778 78 148 104
-25.8128 17.4948 27.8723 86 154 105
-26.86 16.6352 27.8668 62 116 76
-27.5581 16.0621 27.8631 56 110 72
-26.982 10.5463 27.1523 56 130 73
-27.5975 -8.92755 24.8878 77 131 89
-27.9096 15.7814 27.4097 57 123 75
-27.5044 9.64811 26.6366 69 148 85
-28.1479 8.96061 26.6142 78 152 97
-27.288 0.951394 25.5738 82 144 98
-26.8306 -7.45008 24.5239 61 114 74
-27.1923 -7.74704 24.522 68 123 79
-27.8359 -9.45153 24.3776 67 118 73
-29.226 -14.6561 23.8832 83 160 95
-24.7704 18.3661 26.9747 77 149 105
-25.8177 17.5065 26.9692 81 162 98
-27.563 16.0738 26.96 67 145 85
-26.8888 2.10354 25.2124 68 128 82
-28.2946 -11.5072 23.703 66 136 81
-25.122 18.0854 26.5213 83 158 111
-27.9145 15.7932 26.5066 78 151 95
-27.3862 9.44244 25.6867 75 136 92
-28.7354 8.17548 25.6603 77 130 91
-26.8913 2.10953 24.7509 60 116 74
-27.5877 0.557882 24.6284 62 123 79
-29.1678 -14.7623 22.9197 84 159 100
-26.7748 -7.54762 23.0999 66 143 81
-28.5052 -10.1448 22.9473 80 158 97
-24.7778 18.3837 25.62 76 146 107
-25.825 17.5241 25.6145 82 156 102
-27.5703 16.0914 25.6053 69 120 86
-27.6655 8.11148 24.6359 64 109 71
-26.8338 2.00968 23.8083 55 118 73
-27.5303 0.457481 23.6845 61 129 68
-24.7827 18.3954 24.7168 82 147 108
-25.8299 17.5358 24.7113 83 155 99
-27.5752 16.1031 24.7021 69 121 83
-26.9013 2.1335 22.9051 70 149 83
-27.3653 1.09957 22.8217 78 149 88
-27.8303 0.0637077 22.7381 81 150 91
-27.4279 -9.22787 21.0774 76 150 90
-24.7875 18.4072 23.8137 74 150 106
-25.8347 17.5476 23.8082 86 155 100
-27.5801 16.1149 23.799 61 135 84
-27.4951 1.33584 21.9382 73 131 82
-27.4938 -9.10538 20.6293 77 148 90
-24.7924 18.4189 22.9105 79 152 109
-25.8396 17.5593 22.905 84 158 105
-27.585 16.1266 22.8959 81 157 97
-26.4666 4.14931 21.2678 78 141 89
-26.6796 2.6737 21.1018 66 132 80
-25.1439 18.1382 22.4571 85 162 115
-26.1911 17.2786 22.4516 82 152 103
-26.5402 16.9921 22.4498 80 150 95
-27.6272 1.57783 20.5941 64 128 68
-26.8917 16.7114 21.9964 81 136 87
-27.5898 16.1383 21.9927 78 125 83
-26.5155 3.31277 20.2428 70 137 88
-24.7997 18.4365 21.5558 82 153 109
-25.8469 17.5769 21.5503 88 154 99
-26.5451 17.0038 21.5467 68 123 69
-27.9414 15.8577 21.5393 64 109 71
-26.518 3.31875 19.7819 71 145 91
-25.9331 4.13207 19.3662 55 132 75
-27.1708 2.62828 19.2965 78 156 90
-24.8046 18.4482 20.6527 79 153 104
-25.8518 17.5886 20.6472 87 154 95
-26.55 17.0155 20.6435 68 124 78
-27.5972 16.1559 20.638 56 111 78
-24.8095 18.4599 19.7496 79 154 107
-25.8567 17.6003 19.7441 82 159 98
-26.5548 17.0273 19.7404 74 153 90
-27.602 16.1676 19.7349 68 150 88
-27.1584 -15.5461 15.0449 87 152 92
-25.8616 17.6121 18.8409 87 162 102
-27.5907 -15.7213 14.592 85 130 91
-26.0888 -4.00535 15.5254 84 162 92
-26.1298 -14.5139 14.1264 81 142 82
-27.0012 -4.24729 15.1214 87 150 89
-24.8217 18.4893 17.4917 79 153 101
-25.1708 18.2027 17.4899 83 160 103
-25.5198 17.9162 17.4881 84 163 105
-26.7698 -3.71709 14.7016 85 145 88
-27.4445 -14.0279 12.9085 58 130 65
-25.8738 17.6414 16.5831 84 164 100
-27.4946 -4.29587 13.7666 65 114 73
-25.1781 18.2203 16.1352 89 162 108
-27.2725 16.5011 16.1242 85 162 99
-27.9031 -5.45406 13.1851 59 124 75
-27.4368 -4.39816 12.8129 67 137 78
-27.8809 -14.1907 11.513 81 154 91
-27.8639 -15.2024 11.3719 82 155 93
-27.2774 16.5128 15.221 87 150 99
-27.6211 12.62 14.7198 69 120 89
-27.4032 10.4228 14.3924 76 126 92
-27.8453 -5.55679 12.2301 73 149 81
-28.5975 -15.7963 10.8953 85 160 94
-27.6289 16.2321 14.7676 71 121 87
-27.2406 4.63057 13.1128 62 123 79
-27.5219 -3.29135 12.0423 79 155 90
-27.3193 12.0935 13.703 57 111 69
-26.9943 10.6154 13.461 60 117 73
-27.1659 3.57342 12.0346 78 152 86
-28.8591 -15.3024 9.57146 85 162 93
3.14762 27.4892 11.5959 56 89 81
2.64323 26.5864 11.5243 55 89 84
-27.2872 16.5363 13.4148 61 118 81
-27.4212 -2.5231 10.7414 81 128 83
-5.29882 25.4129 11.7776 60 92 85
3.56879 27.6882 10.6527 56 84 81
2.28154 26.3055 10.5995 56 85 84
-26.7393 9.26236 11.4124 83 155 97
-27.0924 8.97248 11.4106 84 153 96
-27.3007 -2.73847 9.76608 72 126 83
-27.3954 -11.1841 8.57395 77 151 94
3.06209 26.7913 10.1188 55 86 80
0.852204 25.1403 10.1306 55 83 70
-3.70219 25.4533 10.6863 59 88 84
-4.74816 25.3991 10.796 61 91 84
-26.8216 10.3195 11.1149 86 143 90
-27.6162 8.07079 10.8823 73 121 85
4.26993 27.4644 9.61671 54 83 76
3.27695 27.3017 9.70529 54 85 76
2.27655 26.3175 9.6766 56 84 77
0.354965 25.0661 9.71336 54 85 75
-2.65612 25.5135 10.1172 59 88 86
-26.7442 9.27422 10.4987 74 118 77
-27.5571 7.9674 10.4025 67 113 80
-27.6921 5.44653 10.0553 61 111 74
-26.9465 -2.43153 8.83859 71 143 85
-3.70715 25.4652 9.76896 58 90 79
-26.9503 16.8521 11.1588 81 132 84
-27.2994 16.5656 11.1569 85 139 85
-26.3502 10.4037 10.1593 71 118 73
-27.6662 7.24474 9.85207 57 114 76
-26.6084 -1.15529 8.51876 61 129 78
-27.0119 -2.31183 8.39743 77 150 89
-27.3571 -10.2822 7.28521 76 119 82
3.27196 27.3137 8.78261 57 83 75
2.27156 26.3295 8.7537 55 69 68
0.706515 25.3708 8.79277 33 54 52
-27.6509 16.2849 10.7035 69 118 76
-26.7054 10.1201 9.70111 62 114 66
-26.9169 8.66877 9.51457 56 115 62
-27.2703 8.37869 9.51271 58 124 68
-27.8373 6.63077 9.32359 63 138 77
-27.8208 5.67923 9.1836 67 142 82
-26.4596 0.455278 8.2704 74 146 87
-27.248 -2.82817 7.88364 80 147 89
-2.45958 25.2141 8.66988 59 88 85
-24.5117 18.8696 10.2685 79 144 105
-25.2098 18.2965 10.2648 88 162 114
-26.9552 16.8639 10.2556 65 111 76
-26.5842 9.90849 9.19895 64 125 75
-27.6094 7.14692 8.91358 70 151 86
-26.9811 2.32524 8.13859 81 151 88
-26.7573 0.0547896 7.7819 80 147 91
-26.6762 -1.03005 7.61442 82 144 92
-28.2765 -14.4167 5.84553 81 156 90
5.60131 26.2961 7.44064 52 79 79
4.323 26.5592 7.62618 54 78 80
2.83207 26.3163 7.76207 53 69 72
-24.8632 18.5889 9.81506 86 159 110
-25.5613 18.0159 9.81139 88 159 114
-27.6557 16.2966 9.80039 58 118 72
-26.6923 9.189 8.6483 66 137 74
-27.4092 5.87186 8.2448 81 148 91
5.17015 26.1147 6.99922 50 77 79
3.54351 26.9083 7.30402 56 78 80
-3.0914 25.3576 7.84255 57 88 80
-26.9601 16.8756 9.35249 66 132 84
-27.2159 8.28724 8.11799 75 138 87
-27.6426 5.36591 7.73731 83 134 88
-27.2978 2.89543 7.33387 77 124 84
-26.7441 -0.904851 6.71052 80 143 87
-27.1299 -3.03779 6.44116 67 125 76
-28.5831 -14.8226 4.87456 86 156 95
-1.41504 25.2861 7.177 52 81 73
-24.8681 18.6007 8.91193 81 157 103
-25.5662 18.0276 8.90826 85 163 108
-27.6606 16.3084 8.89726 76 151 80
-26.1768 10.1072 7.808 79 146 84
-27.3866 7.67451 7.58876 67 119 76
-26.7282 -1.87334 6.10051 74 142 83
-26.9616 -2.39533 6.05042 63 129 72
-27.2405 -3.78334 5.87754 70 135 80
4.59617 26.1521 6.14291 51 78 78
-1.77321 25.0001 6.715 52 84 80
-25.9177 17.7469 8.45486 84 157 105
-26.2668 17.4604 8.45302 83 157 101
-26.9649 16.8873 8.44936 82 154 95
-27.0529 8.91685 7.2756 75 130 87
-27.3512 -4.5304 5.31283 78 149 81
-26.8907 -13.0757 3.98969 85 156 91
-27.7943 -14.3296 3.90887 85 155 92
2.39557 26.1534 5.93703 37 59 61
-27.6655 16.3201 7.99412 83 130 86
-26.7202 10.1556 6.96334 60 117 78
-27.1789 9.14087 6.86569 72 130 88
-26.7332 -1.86128 5.17157 76 151 86
-26.9666 -2.38326 5.12103 79 152 87
8.59132 25.9854 4.71908 49 78 78
-1.4225 25.304 5.79661 44 73 68
-24.8754 18.6182 7.55722 83 158 108
-25.5735 18.0452 7.55355 87 156 106
-26.2717 17.4721 7.54989 77 137 86
-26.9698 16.899 7.54622 82 137 84
-27.672 -14.5545 2.91358 84 155 88
1.89489 26.0846 5.0602 44 67 61
-25.8722 12.299 6.27079 62 112 70
-26.3291 11.2885 6.1727 58 109 70
-27.3621 5.79732 5.46803 79 156 89
-27.8241 4.77264 5.36838 79 152 90
-27.5591 3.37093 5.12592 80 152 91
-26.7894 10.282 5.61824 68 135 82
-27.2134 7.37526 5.22893 77 154 85
3.16071 25.8333 3.94542 35 54 51
-25.8152 12.2029 5.33636 64 133 81
-26.2291 12.0219 5.35831 65 134 78
-26.3958 11.4085 5.28503 65 135 74
-27.598 5.29717 4.49996 82 158 94
2.80082 25.5459 3.48119 40 60 61
1.17399 25.517 3.67208 38 57 60
0.610082 25.5428 3.74372 38 60 64
9.58471 25.3467 2.1689 49 75 78
9.79822 25.0305 1.62681 48 74 77
3.65048 25.932 2.51057 46 75 73
1.09981 25.6352 2.77391 46 70 73
0.248643 25.2621 2.81961 45 68 70
2.86307 25.4575 2.06922 46 73 75
-1.93207 25.2658 2.62328 45 72 72
-3.40584 25.0261 2.76559 44 74 67
0.31258 25.1679 1.87243 46 77 72
-3.34304 24.9322 1.82226 50 73 75
-5.10026 24.2963 1.93891 51 80 73
-6.28124 24.461 1.65041 51 79 77
-4.05817 24.3612 0.899824 50 76 76
-20.3644 22.4077 2.6138 63 95 87
-6.97394 24.7102 0.85752 52 78 76
-19.3196 23.2732 2.16774 58 91 85
-19.6687 22.9866 2.1659 59 92 86
-21.4165 21.5598 1.70517 61 96 90
-19.3245 23.2849 1.2646 55 89 85
-19.6736 22.9984 1.26277 56 91 85
-24.5605 18.9869 1.23709 80 148 108
-26.3059 17.5542 1.22793 83 156 104
-20.3741 22.4312 0.807534 59 93 83
-21.4214 21.5716 0.802033 58 96 82
-24.912 18.7062 0.783696 91 161 115
-25.6102 18.1331 0.780028 94 167 110
-25.9617 17.8525 0.326622 95 158 100
-14.7925 24.5415 138.434 124 132 170
-17.0002 23.6515 138.363 124 131 179
-9.77416 25.6977 137.723 114 121 152
-21.6166 -26.7829 138.978 206 198 152
-22.7199 -27.6493 138.963 193 178 148
-24.5756 -27.5314 138.869 168 156 156
-12.9368 24.4839 136.715 119 116 160
-26.7437 12.3709 136.58 188 209 228
-22.9516 -28.1175 138.495 216 246 254
-25.5688 13.7422 136.125 193 205 227
-24.7279 -28.1048 137.935 216 240 241
20.7629 25.1209 137.336 113 117 153
15.5372 24.3756 137.126 116 113 157
-12.0222 24.8105 135.837 116 119 158
-25.8676 13.4026 135.674 163 185 231
-26.7519 12.3762 135.676 164 199 233
-27.6362 11.3497 135.678 193 214 236
-21.9996 -27.8264 137.573 207 221 241
20.4745 25.4114 136.835 108 114 149
19.4763 25.0744 136.804 108 113 152
-11.2326 24.6071 135.427 115 121 155
-24.9875 14.4317 135.221 185 196 218
-27.0508 12.0366 135.226 141 179 204
-27.445 4.09032 135.535 197 212 231
-25.8759 13.4079 134.771 71 88 100
-26.7601 12.3814 134.773 76 105 134
-27.6444 11.355 134.775 171 205 226
-27.429 6.18986 134.995 198 208 229
-27.4294 3.3592 135.109 187 206 230
-26.7892 -3.15888 135.403 200 211 235
20.6553 25.2251 135.9 65 74 106
17.1319 25.4358 135.736 105 112 147
-27.059 12.0419 134.322 72 105 139
-27.5326 4.19252 134.615 160 178 213
-27.8107 3.11334 134.646 186 198 236
-26.7728 -3.90436 134.973 198 210 238
-26.7683 12.3867 133.87 70 91 105
-27.6526 11.3602 133.872 140 166 203
-27.5974 0.709859 134.294 159 174 212
-26.8731 -11.8158 134.82 196 213 230
-26.7207 -26.2763 135.397 202 216 231
20.5519 25.3266 134.941 41 50 68
-7.07111 24.7348 133.782 84 82 105
-9.14305 24.987 133.683 73 76 104
-9.77492 25.0094 133.655 74 77 105
-10.3224 24.9399 133.635 77 79 99
-26.1829 13.0736 133.417 103 121 139
-27.0672 12.0472 133.419 97 121 141
-27.5205 6.29397 133.623 191 195 228
-27.5409 4.19783 133.704 171 180 196
-27.819 3.11866 133.734 140 141 170
-27.5819 -0.0274587 133.866 142 155 166
-27.2228 -1.90786 133.955 151 163 180
-26.715 -12.0188 134.369 183 196 217
-26.7766 12.392 132.967 96 120 136
-27.6608 11.3655 132.969 100 130 140
-28.5451 10.339 132.971 190 200 221
-27.977 8.95335 133.048 195 205 224
-27.2477 7.36894 133.139 198 205 227
-27.2068 -2.65056 133.525 138 147 173
-27.1463 -4.89518 133.613 138 146 148
-26.8004 -11.9132 133.896 144 162 194
20.1382 25.0677 133.982 58 62 78
-10.7111 24.6921 132.718 94 94 130
-11.9684 24.7374 132.664 111 109 145
-26.1911 13.0789 132.514 109 137 160
-27.0754 12.0524 132.516 105 130 120
-27.6078 6.39538 132.707 199 201 220
-27.4699 4.10628 132.799 152 144 171
-27.748 3.02676 132.828 148 148 165
-27.1914 -0.514628 132.985 147 146 164
-26.7026 -12.7785 133.468 130 149 162
-26.8443 -13.3383 133.483 132 149 168
-27.1487 -13.6916 133.484 141 157 179
-27.1686 -15.8955 133.566 132 140 155
-26.7336 -26.2681 133.975 170 184 197
-27.9852 8.95864 132.142 189 209 232
-27.335 7.47 132.224 195 209 236
-27.5934 2.83476 132.386 174 170 188
-27.2353 -1.89982 132.576 154 154 189
-27.1547 -4.8898 132.691 147 160 184
-26.8915 -8.86317 132.849 144 152 180
-26.9916 -10.9394 132.922 140 151 160
-27.4578 -17.0194 133.129 153 173 178
25.6081 25.6346 133.231 111 113 137
-6.87356 25.1845 131.944 114 116 151
-7.25663 24.9302 131.938 114 114 151
-10.339 24.9506 131.813 109 111 149
-26.7889 12.3999 131.612 112 135 132
-27.6731 11.3734 131.614 89 114 143
-28.5574 10.3469 131.616 176 197 219
-27.9511 7.51152 131.744 197 208 234
-27.3991 1.16806 131.998 179 196 218
-27.3595 -3.19 132.159 162 181 212
-27.46 -5.23659 132.23 161 182 205
-27.0378 -6.49159 132.293 166 183 208
-26.7341 -9.06398 132.399 164 172 193
-26.8339 -11.1417 132.471 156 167 172
-26.5484 -12.9796 132.55 168 175 172
-27.3603 -17.8956 132.697 170 181 191
-26.2035 13.0868 131.159 85 110 121
-27.3236 3.92033 131.445 195 206 229
-27.2043 2.35272 131.506 193 205 225
-26.9641 -0.802722 131.629 192 209 229
-27.2436 -1.89446 131.657 192 205 226
-27.5237 -2.9883 131.686 195 208 229
-27.2434 -4.78425 131.761 192 206 222
-26.6365 -9.92295 131.97 198 205 218
-26.4714 -13.0801 132.09 190 199 201
-26.7738 -16.4093 132.198 156 162 195
-26.5813 -26.4763 132.568 156 163 186
-26.7971 12.4051 130.709 96 130 135
-27.6814 11.3787 130.711 80 103 136
-27.5486 -5.13095 131.301 182 207 229
-27.368 -6.08328 131.342 183 203 226
-26.4397 -8.70706 131.471 193 208 230
-26.4786 -10.1246 131.519 198 212 231
-26.6987 -13.5343 131.632 198 210 217
-26.7174 -15.7387 131.709 167 171 198
-27.3688 -17.8901 131.76 192 209 240
-27.2463 -19.5488 131.823 186 199 232
26.2945 25.6201 131.822 108 113 149
-5.05585 25.2179 130.64 101 106 148
-27.8443 8.77887 130.344 187 209 228
-27.5095 7.67196 130.395 191 209 228
-28.0422 7.61505 130.377 193 208 224
-27.3517 4.65851 130.506 176 184 191
-27.252 -1.8891 130.738 162 171 213
-27.5321 -2.98293 130.766 178 197 226
-27.3321 -4.6787 130.833 178 192 221
-27.5329 -5.87939 130.867 168 181 220
-26.619 -16.613 131.276 191 205 238
-26.4492 -22.8486 131.499 202 212 238
-26.5899 -26.4708 131.62 185 196 215
-26.8053 12.4104 129.806 71 91 98
-27.6896 11.3839 129.808 66 95 123
-27.9676 7.5221 129.93 197 204 223
-26.9969 -0.052519 130.226 154 163 195
-27.4368 -6.73015 130.438 156 171 212
-26.6283 -10.676 130.604 179 201 232
-26.7072 -13.5288 130.699 192 199 219
-26.5415 -16.7149 130.814 184 206 228
-27.3366 -19.4377 130.878 182 192 237
26.0923 25.8186 130.849 111 111 152
-6.42649 25.3601 129.668 85 83 113
-27.1042 12.0709 129.355 61 84 100
-27.8717 9.50746 129.413 186 202 226
-27.695 8.59366 129.45 194 206 231
-28.0912 6.26178 129.514 180 175 213
-27.1804 -1.98287 129.826 157 159 187
-27.461 -5.97458 129.95 140 150 171
-26.6743 -9.15228 130.086 144 157 181
-26.4363 -23.6295 130.583 192 201 251
-26.3719 -25.9979 130.665 188 206 248
25.9912 25.9178 130.363 112 111 151
-16.2022 24.7333 128.878 97 92 127
-26.8135 12.4157 128.903 75 95 124
-27.6978 11.3892 128.905 78 110 136
-27.165 0.14973 129.296 149 161 203
-26.8249 -0.986968 129.346 167 181 204
-27.1045 -2.07937 129.372 154 162 171
-27.3045 -3.27352 129.405 140 145 166
-26.9634 -4.42141 129.455 140 147 169
-27.1841 -4.87097 129.462 140 147 171
-27.3848 -6.07251 129.494 131 139 161
-26.7156 -13.5234 129.766 141 146 171
-26.3865 -16.9189 129.89 136 152 183
-26.9984 -17.6291 129.891 162 179 187
-27.5699 -19.8936 129.946 173 185 227
26.0835 25.8242 129.891 111 113 144
22.8891 25.6493 129.783 39 45 67
21.4099 25.7907 129.726 37 48 69
-27.1124 12.0761 128.452 63 85 114
-28.2914 10.7075 128.454 171 205 235
-27.6644 7.14716 128.593 197 208 237
-27.6657 4.3239 128.684 153 163 203
-27.1686 -2.72313 128.932 145 145 139
-27.208 -7.02484 129.07 131 137 148
-26.7365 -18.718 129.468 163 180 183
-26.5486 -22.7307 129.605 144 143 184
-26.5458 -25.7761 129.704 130 135 142
28.261 25.0069 129.514 111 114 137
-26.8217 12.4209 127.999 75 100 124
-27.5106 6.9581 128.15 191 208 232
-27.7296 3.69043 128.247 181 192 211
-27.293 1.73186 128.325 182 191 218
-27.4126 0.450054 128.362 189 196 226
-27.0724 -3.5672 128.502 154 153 162
-26.8914 -4.51612 128.539 164 165 181
-27.3329 -5.4158 128.552 163 164 184
-27.0307 -7.97995 128.645 161 168 183
-27.2724 -10.6079 128.72 179 192 205
-26.8055 -13.4145 128.826 155 161 193
-26.6192 -17.3734 128.959 171 183 218
-26.6964 -23.2996 129.146 155 154 196
26.0748 25.8298 128.933 106 107 131
-6.7419 25.0239 127.838 107 108 142
-26.2363 13.1079 127.546 75 100 114
-27.7101 11.3971 127.55 100 121 128
-27.2973 7.40073 127.69 167 198 219
-27.6533 6.42454 127.708 193 208 230
-27.6739 4.32922 127.773 193 208 229
-27.5957 1.38796 127.868 192 208 239
-26.6396 -22.6183 128.655 168 161 193
-26.7619 -23.9765 128.693 144 145 176
27.3753 25.8837 128.496 112 111 141
25.5646 25.6626 128.442 83 89 115
-27.5969 9.86353 127.15 65 97 115
-27.6379 5.69788 127.277 191 202 230
-27.9755 3.98663 127.318 190 206 228
-27.2417 2.37671 127.392 193 208 225
-27.4209 0.455397 127.446 191 203 216
-27.1414 -1.32423 127.51 188 201 228
-27.0412 -2.16787 127.539 188 201 228
-27.1198 -7.87319 127.713 197 210 235
-27.1191 -10.8071 127.803 196 213 232
-26.5698 -13.7195 127.911 197 210 230
-26.6066 -18.1436 128.046 202 209 238
-25.3907 -30.3705 128.464 180 199 218
25.5602 25.6653 127.963 53 65 85
-26.834 12.4288 126.645 60 82 88
-27.7183 11.4024 126.647 59 80 91
-27.3055 7.40602 126.781 133 168 190
-27.5825 6.33374 126.805 185 198 226
-27.7614 4.43134 126.856 175 199 239
-27.604 1.3933 126.953 183 194 200
-26.7637 -3.95857 127.143 190 207 240
-26.8236 -4.60822 127.161 189 205 233
-26.9639 -5.1584 127.173 191 207 232
-26.287 -15.5683 127.51 188 210 230
-26.5108 -16.0273 127.517 188 211 229
-26.6506 -19.5909 127.62 196 212 245
-26.6481 -22.6128 127.711 199 207 229
-26.7705 -23.971 127.748 174 183 203
-26.563 -25.7651 127.81 182 201 218
27.1722 26.0824 127.524 110 110 124
26.7621 25.8155 127.519 96 97 107
-6.11672 25.0095 126.486 79 79 109
-25.9539 13.4579 126.191 93 110 126
-27.5264 9.77392 126.25 62 82 96
-27.0908 2.18681 126.489 163 176 203
-27.19 0.16577 126.546 138 155 163
-26.7473 -4.70575 126.705 175 184 191
-27.2089 -7.76648 126.781 188 201 230
-27.0466 -10.9042 126.879 197 199 236
-26.6597 -13.6105 126.972 177 183 204
-12.706 24.1804 125.844 89 88 121
-26.8422 12.4341 125.741 94 125 152
-27.3926 10.3091 125.786 74 93 124
-27.3928 7.50707 125.868 133 162 199
-27.5908 6.33904 125.895 185 189 215
-27.71 5.07168 125.929 148 147 169
-26.4116 -2.95546 126.203 148 159 169
-26.4712 -3.60389 126.22 159 167 178
-26.7308 -5.45435 126.266 153 165 160
-26.3806 -12.4877 126.482 164 177 223
-26.8872 -14.065 126.512 167 176 193
-26.6592 -19.5854 126.68 164 175 224
-26.8021 -20.1533 126.692 173 186 229
-26.6567 -22.6072 126.768 182 203 222
-26.7791 -23.9654 126.803 183 206 219
27.0664 26.1844 126.559 108 110 125
26.1498 25.7473 126.543 60 64 74
-8.37873 24.1127 125.526 92 87 119
-25.6673 13.8054 125.287 88 113 126
-27.5346 9.77919 125.345 62 80 99
-27.1205 8.57963 125.392 55 88 119
-27.8531 4.53608 125.484 143 152 182
-27.298 1.00935 125.602 158 163 196
-26.6752 -4.80059 125.787 134 143 166
-26.855 -6.7565 125.838 139 154 192
-12.6318 24.0939 124.941 103 105 151
-25.9662 13.4658 124.836 80 94 114
-26.8504 12.4394 124.838 82 100 119
-27.3221 10.2196 124.886 77 95 125
-27.2628 8.04758 124.949 92 119 147
-27.599 6.34435 124.986 185 192 207
-27.1226 0.0753522 125.176 157 157 196
-26.5781 -5.65005 125.353 143 149 184
-27 -7.30646 125.386 163 172 212
-27.1809 -9.27304 125.436 145 150 192
-26.6725 -13.6024 125.572 167 179 198
-26.6043 -21.9241 125.807 135 138 162
-26.7877 -23.9599 125.858 144 148 156
-26.7645 -27.8079 125.967 155 162 207
27.1548 26.0936 125.605 106 110 127
26.3347 25.5599 125.596 64 67 85
25.033 25.5094 125.559 40 49 70
-10.3693 24.28 124.548 115 112 151
-11.5458 24.2341 124.515 113 112 146
-26.7354 10.908 124.432 92 111 124
-27.5428 9.78448 124.439 78 94 109
-27.4052 7.51501 124.506 151 177 197
-27.7418 5.81008 124.542 184 197 211
-26.6031 -4.89551 124.869 162 173 198
-26.7828 -6.8521 124.918 153 161 195
-25.9744 13.4711 123.933 149 156 180
-26.8587 12.4446 123.935 140 147 152
-26.8184 11.0053 123.975 137 146 140
-26.695 -21.812 124.859 165 166 218
27.7082 24.8645 124.694 111 107 136
25.3137 25.2255 124.617 91 88 108
-26.2732 13.1316 123.482 182 191 214
-27.747 11.4208 123.486 175 191 199
-27.6309 7.08046 123.603 194 205 235
-26.7705 -7.60202 124.013 201 211 235
-26.3019 -27.6575 124.552 156 173 202
-27.4372 8.24917 123.124 196 203 236
-26.6131 -7.80203 123.559 200 213 237
25.4015 25.1345 123.664 112 114 143
28.4713 22.7204 116.571 109 109 138
28.6587 22.5301 115.612 112 108 145
28.4538 22.7316 114.641 110 111 142
28.8436 23.6865 109.81 113 111 138
27.4017 23.0846 108.841 107 109 139
23.4147 23.697 108.812 112 112 137
23.9107 23.8716 107.855 112 111 137
22.3981 23.365 107.851 111 109 145
-26.5896 8.54957 107.705 190 197 222
24.3152 24.1405 107.377 111 111 137
-26.0747 -7.10649 107.341 197 204 226
-26.0273 -11.5669 107.366 200 209 246
23.2054 23.9019 106.895 112 111 142
22.5807 23.1767 106.896 113 110 139
-26.736 8.01954 106.799 193 199 225
-26.3815 -7.45496 106.878 198 206 227
25.7507 25.4051 106.417 115 109 142
-26.1345 13.5738 106.321 194 204 224
25.3369 25.1413 105.938 106 100 128
-26.4334 13.2343 105.87 187 196 207
-26.5269 8.46464 105.889 178 184 210
-26.9617 7.5848 105.891 164 169 192
-26.8181 -0.403648 105.923 189 203 214
-26.228 -7.6523 105.952 179 187 203
-26.5907 -8.65996 105.955 192 207 223
-26.792 -9.87336 105.96 199 211 228
-26.4189 -17.7645 105.991 203 210 218
22.5928 23.8381 105.459 111 110 146
-26.2553 9.53682 105.431 158 161 188
-26.8632 1.08152 105.458 146 157 184
-25.8917 -5.88857 105.483 171 188 218
-25.7891 -6.74452 105.486 181 196 213
-26.6133 -10.837 105.498 189 205 239
-26.384 -16.317 105.517 188 208 249
-26.3199 -18.6441 105.525 183 194 207
-26.6616 -26.5354 105.55 170 193 206
25.4478 25.703 104.978 111 111 136
22.4928 23.9376 104.98 110 111 142
-26.4416 13.2396 104.967 119 129 164
-26.5557 9.19561 104.978 110 126 154
-26.7689 3.10252 104.995 144 155 169
-26.6185 8.56812 104.526 112 120 135
-26.6774 7.9371 104.527 111 117 142
-26.4924 1.33602 104.541 123 125 159
-26.6911 0.14937 104.544 113 129 145
-26.2619 -6.88786 104.559 112 113 130
-26.6242 -7.89404 104.561 106 110 130
-26.8856 -9.76312 104.565 152 163 170
-26.3498 -17.8614 104.583 127 127 140
-26.5875 -26.6383 104.602 123 134 161
-26.4661 -28.3342 104.131 179 199 217
26.3503 26.1482 103.54 112 112 136
25.2417 25.9041 103.541 111 110 133
-11.3693 23.2739 103.585 114 114 153
-26.4539 13.2475 103.612 147 160 182
-26.4889 9.10825 103.617 151 160 176
-26.7649 8.03809 103.618 147 156 173
-26.7813 3.11052 103.623 170 179 186
-26.6994 0.154723 103.626 145 157 167
-26.3512 -6.78135 103.633 143 146 149
-26.7135 -7.78721 103.634 142 150 152
-26.9147 -8.99802 103.636 162 172 171
-26.3584 -17.856 103.644 120 124 130
-26.7866 -19.5568 103.646 138 136 136
-26.5533 -28.2224 103.655 188 205 219
-26.8871 6.77642 103.164 178 189 204
-26.6648 1.54014 103.166 179 194 199
-11.5437 23.4638 102.674 117 115 145
-26.4621 13.2527 102.709 181 194 216
-26.5585 11.283 102.709 189 197 222
-26.6758 10.0281 102.709 185 197 216
-26.9315 8.2346 102.71 182 193 222
-27.1289 7.06716 102.71 184 196 217
-27.1283 4.23962 102.71 189 200 213
-26.8474 -0.384903 102.709 190 203 219
-26.4404 -6.67488 102.707 195 204 224
-26.6411 -7.88323 102.707 192 202 223
-26.9232 -8.9926 102.708 194 204 221
-26.4701 -16.9699 102.706 179 188 202
-26.7952 -19.5513 102.706 192 203 218
-26.4176 -27.6389 102.704 198 205 229
-27.1724 5.70679 102.255 184 196 222
-27.3708 1.68826 102.252 191 201 221
-1.11497 26.23 101.726 113 110 148
-13.6171 22.3907 101.769 116 115 159
-14.0786 22.2308 101.77 116 115 161
-26.4703 13.258 101.806 145 164 198
-26.9211 10.3181 101.804 156 166 209
-27.1179 9.15614 101.803 143 145 190
-27.3152 5.17118 101.799 153 167 196
-27.7517 4.28708 101.8 162 181 209
-26.6495 -7.87782 101.78 202 210 227
-26.83 -9.84898 101.778 200 209 230
-26.4181 -16.2951 101.768 204 217 238
-26.5181 -18.4114 101.766 201 214 231
-0.51732 26.9313 101.264 113 110 144
-11.0797 24.9672 101.307 114 114 152
-25.8849 13.945 101.353 101 107 123
-27.1811 8.52907 101.349 116 110 134
-25.7287 -15.6868 101.298 203 214 239
-0.220589 27.2833 100.802 111 108 144
-0.735781 26.492 100.803 109 109 140
-10.4423 26.2788 100.852 115 112 151
-26.4785 13.2633 100.903 104 102 133
-26.575 11.2936 100.899 96 102 135
-26.8503 10.2285 100.897 113 117 156
-27.2051 9.25663 100.897 106 107 130
-27.4025 8.09232 100.895 110 118 140
-27.7794 5.02459 100.89 108 122 139
-28.1367 4.0439 100.889 157 179 198
1.67246 27.9476 99.8702 112 110 145
0.593685 27.083 99.8741 114 107 144
-0.00902864 26.3834 99.8755 114 106 136
-2.50784 25.0295 99.8868 94 104 133
-26.2463 10.1976 99.9872 160 163 177
-24.2139 -29.7783 99.8317 199 213 232
-9.19334 26.2444 99.4786 113 112 139
-26.2129 11.5501 99.539 182 195 213
0.759557 26.9031 98.9484 109 107 137
-2.51621 25.0349 98.9652 79 91 120
2.26286 28.6557 98.483 115 111 157
1.92217 27.6781 98.4807 110 108 145
0.795308 27.5335 98.4895 109 109 145
-6.15657 25.6119 98.5381 112 114 147
-8.82053 26.5034 98.5654 112 114 144
-23.6277 -28.2453 98.4013 201 212 230
-24.0231 -28.4974 98.4033 201 212 229
-24.6226 -30.0219 98.4003 199 212 226
-24.4227 -28.7466 97.9282 202 212 229
2.12792 28.1263 97.557 110 109 141
0.572699 27.0965 97.5656 109 108 140
-6.2496 25.7094 97.6234 112 111 144
2.29884 27.944 97.0917 109 109 138
1.69526 27.2433 97.0931 112 110 141
2.08042 27.5037 96.6284 111 109 139
-8.16607 25.7801 96.7293 113 111 142
1.68685 27.2487 96.1684 111 106 144
1.11888 27.1793 95.7124 113 108 145
-2.33095 25.4956 95.7407 45 59 78
-7.37097 25.5796 95.8042 113 110 144
28.1203 24.3584 94.8699 111 106 133
2.32097 28.5822 95.2476 110 110 136
16.9213 22.8013 94.5272 111 110 142
1.41205 27.5347 94.7877 111 108 137
-7.67776 25.2385 94.8903 109 108 137
3.3165 28.1983 94.305 111 107 144
2.36126 27.8676 94.3153 108 107 139
-13.6505 21.7183 94.4824 115 115 145
24.2845 26.8278 93.51 97 98 113
3.48831 28.0157 93.8374 113 109 143
2.53246 27.685 93.8482 108 108 140
-0.237336 26.6039 93.8781 106 103 132
-25.9515 0.613841 93.521 193 200 215
3.83245 27.65 92.9008 111 105 140
2.87528 27.3193 92.9125 109 107 142
1.40342 26.1951 92.923 109 106 134
-0.158899 26.5166 92.9526 102 102 130
-26.5483 13.308 93.2259 192 198 217
4.43343 28.3552 92.4358 110 107 143
3.77798 28.3748 92.4472 109 107 141
-25.9172 -0.867367 92.5828 194 195 202
4.16428 28.6358 91.9806 109 109 143
3.34524 27.49 91.9799 108 111 134
2.74034 26.7878 91.9813 101 103 124
1.48252 26.1074 91.9946 96 104 124
-12.302 24.2617 92.2151 104 108 146
-27.146 12.629 92.3241 183 191 220
-26.2046 0.917083 92.1514 184 199 204
3.5934 28.5653 91.5268 107 109 138
-2.24035 26.0542 91.5995 107 110 140
-14.3199 20.4204 91.744 120 116 153
-26.5606 13.3159 91.8711 166 167 180
-27.1483 4.20649 91.7554 177 177 187
-26.0059 -0.763024 91.6653 154 157 174
-26.8248 -4.80195 91.6243 150 159 179
-27.3676 -7.76385 91.5932 188 201 224
-26.8595 12.9764 91.4202 139 142 121
-27.1542 12.6343 91.4209 144 145 128
-26.9355 7.47797 91.3421 157 155 164
-26.8157 5.9228 91.3174 154 154 147
-27.0529 3.3773 91.2851 148 141 149
-26.9327 1.8055 91.26 151 145 154
-26.9491 -6.10286 91.146 141 148 167
-27.5129 -8.31502 91.1247 190 201 217
2.12281 26.0937 90.5926 61 74 96
-5.16318 25.1732 90.7228 99 100 133
-11.1749 25.0282 90.8396 63 74 101
-14.4106 20.5187 90.8357 117 115 148
-26.5688 13.3212 90.968 127 139 144
-27.4531 12.2947 90.97 123 129 150
-26.1751 -0.55977 90.7514 125 126 142
-26.8332 -4.79657 90.7007 134 138 146
-27.2147 -7.96124 90.6607 178 196 216
23.0273 26.0526 89.7011 73 70 73
-26.8677 12.9817 90.5171 137 144 162
-27.752 11.9552 90.5191 132 129 162
-26.606 6.3697 90.4085 131 132 147
-27.2403 4.31148 90.3893 124 132 143
-26.941 1.81084 90.3442 127 129 148
-26.6992 -1.35299 90.2898 137 139 150
-26.7962 -6.29913 90.2146 124 142 144
2.20216 26.0059 89.6625 47 60 82
-26.9668 5.39244 89.9446 148 159 168
-27.2444 4.31414 89.933 128 137 153
-27.1844 2.10705 89.896 133 141 172
-26.6439 -0.705011 89.8391 158 170 193
-27.0422 -5.994 89.7619 137 159 160
-27.3844 -7.75305 89.7406 177 197 221
-27.7474 -8.75962 89.732 192 207 224
23.2345 26.5157 88.7494 57 61 78
-26.5811 13.3291 89.6132 168 180 195
-27.4654 12.3027 89.6152 174 183 201
-26.476 6.91258 89.5034 171 180 206
-27.149 3.4852 89.4606 149 155 174
-26.7879 -1.2485 89.3734 182 189 216
3.06279 26.4343 88.7234 87 89 119
2.01817 26.1978 88.7427 62 71 105
0.888789 26.0549 88.7656 88 93 124
-2.99596 26.1844 88.855 108 109 138
-26.88 12.9896 89.1623 184 192 209
-27.4317 2.40551 88.9912 180 193 208
-27.2921 -5.68665 88.8478 179 197 208
-27.3928 -7.74765 88.8143 187 199 220
-27.5947 -8.95758 88.7979 196 209 230
26.3033 26.1441 87.7172 112 106 135
23.2259 26.5212 87.795 47 51 69
4.49738 26.9327 88.2352 110 108 137
-26.5894 13.3344 88.71 182 189 195
-27.4736 12.3079 88.7121 173 173 189
-26.4429 5.45601 88.5656 177 183 198
-26.9982 3.29593 88.5397 180 186 187
-27.4956 1.76833 88.5238 180 191 196
-26.9564 -1.04519 88.461 184 190 191
-27.2564 -1.39341 88.4617 182 188 189
-27.2762 -6.43708 88.3718 183 193 205
4.01306 26.77 87.7791 108 108 135
2.39998 26.461 87.8117 105 103 132
1.18232 26.4107 87.8397 106 104 132
-3.30452 25.8413 87.9359 92 96 124
-26.8882 12.9949 88.2591 165 171 156
-27.2207 -0.00346 88.0268 168 169 172
-27.3809 -5.58073 87.9275 157 152 167
