ply
format ascii 1.0
element vertex 1370
property float x
property float y
property float z
property uchar red
property uchar green
property uchar blue
end_header
43.4407 6.04337 113.7 53 87 67
44.0948 12.4403 113.586 39 75 58
43.8309 14.5821 113.548 37 72 59
44.5224 19.1046 113.468 41 75 60
44.113 20.756 113.438 39 73 55
44.1096 23.3475 113.392 41 70 60
43.082 24.9141 113.364 41 70 58
42.5138 28.6889 113.296 36 68 84
-46.9286 -26.8432 113.732 63 82 77
43.0166 -0.489685 113.336 42 79 59
42.8137 0.30286 113.321 41 80 60
42.8955 2.106 113.288 49 84 63
43.1535 2.51356 113.281 51 86 65
43.522 5.3354 113.23 51 88 64
43.9686 15.0907 113.052 39 76 62
44.4874 18.482 112.99 36 74 60
44.6301 21.5789 112.934 35 70 56
43.986 23.4473 112.899 34 69 56
-9.24568 -24.8244 113.224 31 48 36
43.7403 -25.4007 113.322 45 75 61
43.8216 -6.11861 112.961 49 83 61
44.4748 -4.812 112.938 53 87 64
43.1524 0.0088872 112.845 40 76 57
43.147 2.50915 112.799 47 81 61
43.4326 3.51933 112.78 50 87 65
43.3724 4.82453 112.756 48 85 62
43.5432 5.93609 112.735 46 84 62
44.336 17.9625 112.511 39 77 60
44.6542 19.6115 112.481 38 74 56
44.4498 20.437 112.465 39 75 56
42.3822 28.7864 112.306 40 76 88
-49.4322 -28.4075 112.693 121 143 154
43.3656 -23.3296 112.811 43 77 59
43.3906 -7.61679 112.511 52 89 67
44.0156 -6.90339 112.498 50 87 63
44.782 -5.69259 112.477 51 87 65
42.9704 1.39858 112.337 37 73 54
43.3333 6.73467 112.236 43 82 62
44.1628 11.7152 112.142 53 87 66
42.786 29.7238 111.794 84 122 151
43.3149 30.5593 111.779 120 156 171
-47.2541 -26.6595 112.133 61 78 78
43.7276 -25.4093 112.382 39 72 53
43.7138 -0.481567 111.894 37 73 54
43.1066 1.89844 111.846 36 73 49
43.4196 3.51051 111.815 41 78 57
43.4748 4.71767 111.791 38 74 55
43.6455 5.82886 111.77 38 77 57
44.269 14.1595 111.609 50 86 65
43.9171 17.0263 111.552 49 86 64
44.3228 17.9535 111.535 50 87 65
44.4961 19.0867 111.513 50 85 65
44.32 20.5313 111.484 46 80 62
42.4594 28.0408 111.332 41 78 78
-47.2613 -26.6644 111.602 61 78 78
43.6047 -22.9402 111.862 40 74 61
43.5191 -7.12783 111.546 55 85 66
43.9163 -6.22597 111.529 50 84 64
42.9848 1.9912 111.361 38 74 55
43.0121 2.59325 111.349 36 75 54
43.4358 6.62714 111.27 35 76 57
43.8542 15.7896 111.088 54 88 67
44.1998 18.0515 111.044 55 91 63
42.0345 29.7241 110.803 52 88 109
43.7149 -25.4179 111.443 39 74 61
44.3934 -6.01509 111.049 45 82 60
43.2087 1.79261 110.884 39 74 60
43.6923 4.51294 110.83 36 73 57
43.9785 5.52518 110.811 36 73 58
43.6603 6.42553 110.791 36 74 57
43.8873 8.75425 110.744 44 81 59
44.0589 9.87188 110.722 52 87 66
43.7874 17.1195 110.573 55 89 66
44.5708 18.3571 110.551 55 93 63
44.3922 22.3856 110.468 39 77 56
43.1767 30.6527 110.294 123 153 174
-49.4609 -28.427 110.564 121 144 158
-30.6312 -27.5965 110.642 40 61 47
43.5062 -7.13656 110.59 48 84 65
44.4959 -1.16697 110.47 38 77 57
44.6382 -0.665561 110.46 38 77 57
43.4049 0.993544 110.42 40 76 57
43.2572 2.99209 110.377 37 75 58
43.8249 7.53496 110.285 38 77 57
44.571 10.6869 110.223 41 76 58
44.5993 11.2967 110.21 40 76 57
43.6082 15.9842 110.108 54 84 66
43.7527 16.4984 110.098 55 85 67
44.3031 17.9401 110.07 54 91 64
44.6212 19.5891 110.037 51 89 63
42.5228 29.9193 109.811 82 119 142
-48.7252 -28.2785 110.032 120 143 150
44.0622 -22.7328 110.448 41 76 58
44.4894 -1.17136 109.99 38 77 54
44.0873 0.409579 109.954 40 76 57
43.2506 2.98768 109.895 37 76 56
43.3333 4.79802 109.856 39 78 58
43.7349 5.71285 109.839 38 77 57
43.8184 7.53054 109.801 38 77 57
43.8463 8.13767 109.788 39 78 59
43.5549 9.65255 109.754 43 79 60
44.5576 18.3482 109.575 53 88 66
44.7883 20.7202 109.525 44 80 61
42.1962 28.2353 109.35 43 78 79
-29.9352 -27.4569 109.603 33 53 38
43.4933 -7.1453 109.634 44 82 59
44.1739 -5.24671 109.597 42 77 62
43.883 -1.29369 109.509 40 76 57
43.792 1.89541 109.439 35 73 56
43.387 3.48845 109.402 37 75 59
44.0673 10.468 109.255 41 76 58
42.3633 29.3856 108.832 49 85 98
43.6289 30.2116 108.822 121 153 169
-34.0869 -27.8214 109.062 39 57 41
-33.0801 -27.8655 109.071 38 58 42
-31.2191 -27.8567 109.084 39 57 44
-30.6523 -27.6107 109.082 37 55 43
43.3203 4.78919 108.89 39 76 62
43.6064 5.80235 108.87 39 76 62
44.2639 9.65492 108.789 41 76 61
43.6726 17.8214 108.604 41 78 59
44.1952 18.6471 108.589 45 80 61
44.6586 20.8146 108.544 41 74 56
-47.0002 -26.8918 108.418 65 82 79
-30.0931 -27.3698 108.561 30 49 39
43.8147 -2.49634 108.576 40 76 50
43.6132 -1.70818 108.556 39 73 50
42.1762 28.2217 107.868 42 80 74
-47.86 -28.2436 107.911 119 140 149
-32.2349 -27.8222 108.034 34 52 41
-31.5222 -27.6727 108.036 33 50 41
-19.9943 -25.5059 108.084 22 42 31
43.1643 4.27416 107.934 39 74 59
43.9916 9.23655 107.827 38 77 57
41.9686 26.4354 107.413 42 79 63
42.2602 27.4814 107.392 44 80 62
-47.1666 -26.8024 107.352 64 83 78
-30.1071 -27.3793 107.522 29 48 40
42.3995 28.0002 106.887 43 77 74
-47.333 -26.713 106.285 67 83 80
-49.0254 -30.059 105.817 120 139 151
-49.0398 -30.0687 104.754 121 144 156
43.9633 1.66191 105.113 17 39 30
-47.2096 -26.8316 104.163 67 84 82
44.1383 -27.0554 105.383 42 77 62
43.2005 -7.00092 104.847 36 75 54
43.0436 -27.9867 104.924 41 74 57
-47.2239 -26.8413 103.1 65 81 83
43.0462 -7.5076 103.902 40 73 56
43.9824 -5.2046 103.854 38 66 58
44.3801 -4.3014 103.836 34 49 44
44.8292 5.27827 103.584 39 76 61
-46.2072 -26.2457 102.568 39 53 42
44.2582 -26.5847 103.966 40 78 58
-47.3904 -26.7519 102.032 65 81 81
43.4304 -6.61441 102.928 39 74 58
43.7411 -5.0241 102.888 37 64 54
44.395 -3.71588 102.862 22 35 33
-46.0699 -26.3545 101.511 36 49 39
44.2496 -6.68557 102.465 38 73 57
44.1325 -4.12476 102.391 29 44 36
41.9712 28.2693 101.439 43 81 72
44.1816 -2.93933 101.879 17 40 28
44.0681 17.9622 101.277 49 84 65
-47.2598 -26.8656 100.442 62 82 81
-46.6717 -26.6147 100.446 39 58 53
43.5252 -6.72164 101.498 38 75 56
44.2367 -6.6943 101.51 37 74 55
43.5801 -5.53618 101.465 37 71 53
44.0055 -4.03861 101.429 30 45 37
44.0331 -3.44378 101.412 21 39 32
44.2943 17.753 100.799 46 82 67
44.3511 18.9885 100.764 48 82 63
42.1118 26.161 100.515 40 77 63
41.8394 28.3666 100.445 44 78 75
43.3412 28.9806 100.455 69 107 122
-46.6789 -26.6196 99.9145 39 57 53
43.4868 -4.8522 100.964 37 68 56
44.1965 -2.35228 100.904 27 55 41
44.4299 20.8419 100.222 43 76 59
44.575 21.3589 100.21 41 73 58
-47.2741 -26.8753 99.3793 60 79 79
43.1317 -27.5373 101.159 46 77 63
43.3386 -5.35579 100.498 37 73 54
44.5162 14.9763 99.9105 41 77 61
44.5137 17.5395 99.8335 45 80 69
44.5707 18.7741 99.7976 47 82 69
44.6564 20.6308 99.7436 42 78 61
44.7137 21.8717 99.7075 39 74 59
41.8261 28.3576 99.4567 41 79 70
-47.5255 -28.6219 98.8959 118 140 146
43.2643 -27.0577 100.678 43 76 58
43.7664 -26.2645 100.664 41 76 57
44.445 -6.89537 100.088 39 73 58
45.9515 4.86742 99.7603 44 84 57
44.709 19.2851 99.2965 42 77 63
-47.2884 -26.885 98.3163 64 81 78
-44.3363 -26.2794 98.3591 30 49 35
41.6913 -28.2125 100.211 36 64 46
44.1833 -7.30304 99.6178 42 75 58
43.4674 -4.86533 99.5276 42 75 58
44.1771 -2.36543 99.4652 24 39 33
44.268 17.7351 98.8467 45 78 62
44.4411 18.8679 98.8153 42 76 59
44.8474 19.7963 98.7951 40 75 60
43.3906 -26.5821 99.7269 41 75 58
44.3183 -6.81012 99.128 42 76 55
43.4335 -5.46351 99.0668 41 76 53
46.1671 4.66333 98.8086 46 83 60
44.0039 14.7543 98.4462 46 84 60
-47.4549 -26.7956 97.2468 65 81 82
42.9943 -27.4672 99.2767 44 76 61
43.253 -4.0897 98.5406 44 81 58
44.4874 17.5216 97.8821 40 77 57
-47.0257 -26.4505 96.7138 43 58 55
42.988 -27.4714 98.8074 45 77 59
43.3779 -26.5907 98.788 43 78 57
44.3332 -6.22719 98.1547 46 82 61
44.7704 18.5466 97.3678 37 73 57
40.511 -27.928 98.2945 33 60 40
43.439 26.8464 96.5777 46 76 76
-47.04 -26.4602 95.6508 40 58 54
-46.0163 -25.8601 95.6558 32 49 39
40.7054 -28.6795 97.8532 34 57 42
42.9753 -27.48 97.8687 51 81 63
43.6163 -26.2026 97.842 49 82 62
44.9322 17.0998 96.4434 43 75 53
44.1154 15.245 95.9977 52 83 63
44.2881 16.3735 95.9643 49 80 59
44.1875 27.4584 95.5907 33 67 73
43.7698 -25.154 96.8715 53 86 64
44.919 17.0909 95.4687 43 75 58
44.1239 26.2002 95.1394 39 69 69
42.8175 -27.9767 96.4736 55 84 64
43.0685 -27.5802 96.4666 57 86 63
43.7094 -26.3031 96.4396 55 86 63
44.6518 16.6746 94.9886 48 79 62
-46.9167 -26.5788 93.5323 43 58 59
-46.0449 -25.8795 93.5315 31 49 39
44.1239 15.8466 94.5158 51 84 60
45.0759 25.9754 94.1893 35 62 60
44.8709 26.8115 94.1547 32 62 65
-47.3601 -26.9336 93.0012 68 82 91
43.5309 -27.367 95.5335 56 86 63
43.6697 -26.8832 95.5203 56 86 63
44.1771 14.5117 94.0769 49 83 59
45.6237 24.8225 93.754 38 69 64
-47.3673 -26.9385 92.4697 67 82 91
44.0263 -26.5787 95.0504 54 86 64
44.4308 14.9185 93.5829 49 82 63
44.7196 15.9443 93.5546 44 75 56
45.8792 25.2323 93.2564 34 56 61
43.5183 -27.3756 94.5955 52 85 65
44.1589 -26.099 94.568 50 83 66
44.9735 16.3513 93.0603 39 71 54
45.2339 16.7628 93.053 37 70 53
45.8434 24.6045 92.7878 36 58 62
-19.3681 -26.851 92.2365 40 51 49
44.5336 14.8083 92.6166 41 74 57
44.8224 15.8337 92.5877 39 72 55
45.7496 25.328 92.2687 33 53 58
43.5056 -27.3842 93.6574 51 82 71
44.2581 -26.1953 93.6364 42 78 73
44.8444 16.4442 92.079 37 71 53
45.1049 16.8558 92.0718 37 70 53
45.7137 24.7 91.8005 33 57 59
-19.5211 -26.7649 91.2039 70 78 74
43.7501 -26.9921 93.1814 49 83 79
44.6933 15.9265 91.6066 36 69 52
45.2988 26.3634 91.2354 33 66 69
-19.6673 -26.6739 90.6834 77 80 80
43.3809 -27.3054 92.7126 48 81 77
43.9946 -26.6001 92.7054 42 77 78
44.6629 -24.7511 92.6568 50 86 67
44.5707 16.0237 91.1121 36 68 53
44.6562 17.8714 91.045 36 69 52
41.1679 -29.7375 92.2646 34 58 37
44.1272 -26.1205 92.2224 39 76 69
44.7891 26.1497 90.2449 37 69 71
43.3682 -27.314 91.7743 46 80 79
43.87 -26.5212 91.7603 38 74 67
44.511 -25.2441 91.7322 49 83 63
44.0794 26.7772 89.7057 36 69 71
41.1552 -29.746 91.3255 31 54 35
42.9988 -27.6274 91.305 52 83 74
44.1146 -26.1291 91.2842 39 74 62
43.3274 -10.4571 90.6446 55 87 66
44.2302 -6.29706 90.5124 54 86 64
43.8574 -26.5297 90.8221 39 69 57
43.494 -11.822 90.2279 55 86 67
44.285 -10.0283 90.1843 53 89 63
44.3126 -9.43993 90.162 56 90 63
44.4538 -8.94432 90.1473 57 91 63
44.5094 -7.76522 90.1025 56 87 63
44.6688 5.75415 89.5734 43 79 53
41.2552 -29.8414 90.3937 32 55 38
43.5466 -13.0908 89.8048 54 86 67
43.4011 -11.1466 89.7219 54 86 65
43.7967 -10.2491 89.7 54 86 62
44.4752 -8.35943 89.6483 56 85 63
44.4449 -6.49401 89.5727 56 84 64
44.9203 6.1575 89.0836 42 79 55
44.5974 -25.3491 89.8628 40 78 68
43.4539 -12.4172 89.2991 53 85 64
44.2721 -10.037 89.2323 54 84 59
44.4133 -9.54174 89.2174 54 80 57
44.4966 -7.77393 89.1489 54 72 61
44.7141 4.44069 88.6631 45 75 57
44.5407 5.84354 88.6002 40 77 55
44.8272 6.85619 88.5695 39 75 56
44.6655 29.4755 87.6496 118 147 168
-48.1538 -28.4428 86.125 115 138 146
-47.0565 -25.3509 86.0389 34 50 41
43.2797 -13.501 88.8616 52 77 59
43.502 -11.2479 88.7777 53 85 64
44.3487 -8.27465 88.6872 48 62 50
44.3182 -6.40867 88.6099 47 61 52
-47.3084 -27.1006 85.5698 71 87 93
-46.74 -26.2027 85.5539 36 48 37
44.5848 -25.3577 88.9246 40 74 75
43.8637 -10.9427 88.3026 53 84 64
44.2869 -9.45734 88.2571 48 70 54
44.37 -7.68898 88.1872 42 65 53
44.5582 3.92702 87.7147 46 77 57
44.4127 5.93295 87.6264 39 76 54
44.6992 6.94591 87.5953 40 76 57
45.0622 30.4059 86.6403 124 147 168
44.0766 -26.1548 88.4695 35 69 64
43.2397 -14.0947 87.9346 46 75 64
43.4891 -11.2566 87.8257 54 76 68
43.9983 -10.4522 87.8115 54 82 66
44.4495 -8.37686 87.742 46 73 52
44.5329 -6.60553 87.6713 43 69 52
44.6946 4.42747 87.2172 45 77 56
44.3218 30.4114 86.1191 122 146 167
-47.0386 -26.6614 84.4991 44 60 60
44.678 -18.2813 87.6918 44 68 52
43.4873 -13.6977 87.4526 46 81 68
44.3876 -9.55915 87.313 56 82 61
44.5844 -7.88493 87.25 56 80 60
44.3769 0.315548 86.8963 55 83 69
44.6599 3.82069 86.7595 47 75 59
44.6297 5.72768 86.678 40 77 55
44.8012 6.83853 86.6378 39 76 54
44.4327 30.3002 85.6346 122 149 166
45.5763 31.23 85.6396 125 147 167
44.1759 -26.251 87.5394 31 69 52
44.8718 -23.8286 87.4636 56 90 67
44.7288 -19.5326 87.275 48 76 53
43.5081 -13.1169 86.9538 50 83 71
43.8171 -11.5429 86.8989 47 72 59
44.5501 -8.47896 86.7973 54 77 69
44.2648 -7.01755 86.7238 55 80 70
44.7964 4.32096 86.2619 48 78 60
-47.4692 -27.6679 83.4626 105 123 136
-46.901 -26.7701 83.4468 44 59 63
44.4403 -18.1096 86.7308 49 75 49
44.1846 -16.0959 86.6339 50 74 56
43.7872 -14.5656 86.5522 55 78 67
44.4882 -9.66088 86.3693 51 76 61
44.6272 -6.71257 86.248 53 75 60
44.364 0.306764 85.9355 50 74 59
44.6771 1.91155 85.879 48 70 62
44.7617 3.71439 85.8049 48 72 58
44.3866 5.91529 85.6952 43 77 57
-46.4722 -26.4253 82.9181 35 48 39
44.574 -17.6245 86.2429 52 75 59
44.4818 -9.66523 85.8933 52 71 57
44.5373 -8.48767 85.8444 45 60 52
44.3656 -7.12013 85.778 45 65 52
44.535 -6.03135 85.7376 46 66 45
44.8134 2.41045 85.3821 45 59 51
44.5538 4.50752 85.2804 46 73 58
44.1499 6.10748 85.1944 40 77 55
45.4694 18.9475 84.6902 32 62 50
44.3149 -18.028 85.7775 40 64 48
44.2846 -16.1954 85.6958 45 66 59
43.7157 -13.3138 85.5458 43 64 56
44.4426 -5.34911 85.2264 38 61 51
44.351 0.297981 84.9747 43 71 55
44.7786 1.80596 84.9263 42 66 57
-47.3386 -27.7813 81.8798 110 127 135
-46.3349 -26.5341 81.8667 35 49 37
-45.1804 -25.387 81.8645 32 49 39
44.5612 -17.6331 85.298 44 69 48
44.4966 -9.08543 84.9164 46 71 52
44.6379 -8.58972 84.9004 41 65 49
44.8631 -6.32246 84.8094 44 66 59
44.6059 -4.26175 84.7072 42 68 56
44.8568 3.60375 84.3692 42 76 56
44.6654 -15.3132 84.7262 48 76 60
43.7576 -12.1512 84.5459 49 79 59
44.0394 -11.1628 84.5137 43 76 56
44.5436 -5.45228 84.2797 54 81 50
44.2852 -3.38698 84.1762 55 79 51
44.0256 -1.31239 84.0723 55 78 60
44.8802 1.70035 83.974 54 82 59
44.785 15.0336 83.3732 49 69 55
45.0739 16.0589 83.3397 48 70 57
45.0728 18.6245 83.2248 41 63 48
-47.0689 -27.3422 80.8097 74 89 95
-46.5009 -26.4447 80.7938 36 50 37
43.6965 -13.3268 84.121 47 79 66
44.9639 -6.42522 83.8642 54 75 49
44.5929 -4.27049 83.7507 52 74 41
44.4486 -2.29598 83.6552 49 74 45
44.1892 -0.217377 83.55 48 70 55
44.8439 3.59495 83.4062 50 75 60
45.2119 16.5675 82.836 47 67 57
44.6038 -23.6821 84.1586 46 72 64
44.5467 -22.4448 84.0997 49 76 63
44.625 -15.9038 83.8047 45 76 61
44.6444 -5.55536 83.3335 47 65 49
44.9163 15.5373 82.3832 45 62 54
-47.2353 -27.253 79.7362 73 88 95
-46.667 -26.3553 79.7203 37 49 37
43.5116 -26.9905 83.7923 34 57 50
44.1524 -25.7135 83.7623 36 66 48
44.3461 -24.0833 83.6959 39 68 59
44.5129 -23.0238 83.6545 47 73 65
44.5801 -4.27924 82.7943 42 63 47
44.8309 3.58614 82.4433 43 62 46
43.7649 6.37624 82.267 40 59 38
44.3892 14.7104 81.9111 44 71 50
44.9097 15.5328 81.8966 46 69 52
44.967 16.7623 81.8426 39 63 46
-46.2769 -24.7147 79.1307 30 47 37
44.3097 -22.2758 83.1404 45 75 63
44.1303 -13.707 82.7339 46 71 53
44.0996 -11.8592 82.6466 40 65 48
44.9446 -6.43831 82.4331 47 73 61
44.6316 -5.56409 82.3782 41 66 54
44.8574 -3.28532 82.2825 38 65 52
44.7715 -2.59528 82.2465 39 63 56
43.7862 6.9776 81.7567 40 67 50
44.7569 17.5778 81.3081 45 73 52
45.3074 19.0189 81.2661 37 66 50
-47.4016 -27.1638 78.6621 76 92 96
43.4989 -26.999 82.8541 24 44 39
44.2789 -25.2378 82.8075 36 59 51
44.3608 -23.5182 82.7306 38 65 52
44.9381 -6.44267 81.956 48 77 64
44.7669 -5.07042 81.8837 41 71 55
44.851 -3.28969 81.8041 43 73 56
44.9072 -2.09961 81.7508 44 73 60
44.7808 15.6254 80.9133 44 73 57
44.9238 18.7047 80.7754 38 69 52
43.6291 27.6362 80.2965 39 74 70
-47.012 -25.5234 78.0714 31 48 38
43.9095 -25.5508 82.3357 33 56 49
44.1848 -22.1955 82.1898 35 70 54
44.7884 -4.48177 81.3792 50 79 57
44.9759 17.3646 80.3534 34 69 52
43.5048 27.7375 79.7932 40 74 69
43.2889 -26.2609 81.8708 26 47 33
43.6791 -25.3794 81.8472 28 51 38
44.8693 -7.63246 81.0557 44 78 58
44.0847 6.06332 80.3639 53 82 63
43.8793 28.0435 79.3036 45 85 84
43.6146 -24.1488 81.3152 28 60 50
43.4168 -23.3974 81.2694 32 67 55
44.9469 -5.86438 80.4977 40 73 55
44.9174 -3.99182 80.406 47 81 59
45.0594 -3.49289 80.3888 48 80 59
44.8596 -2.70805 80.3413 48 80 59
43.9012 28.6676 78.782 69 110 113
-47.3379 -25.3389 76.4514 31 48 38
43.2762 -26.2694 80.9316 28 61 45
43.6622 -23.0039 80.7916 38 75 62
44.0535 -22.1195 80.7677 39 74 61
44.7709 -6.9571 80.0651 39 70 56
44.939 -3.40223 79.9003 47 80 58
44.417 5.7597 79.429 47 79 58
-47.4374 -27.1881 76.0053 78 92 101
43.4089 -25.7892 80.4452 32 68 49
43.8263 -24.334 80.3944 36 72 56
44.1713 -9.53571 79.6851 36 69 49
44.7365 -7.55186 79.6157 33 62 52
44.6788 -6.2764 79.5503 34 66 52
44.8204 -5.77886 79.5329 36 69 53
44.7626 -4.49925 79.4672 43 77 57
45.1884 -3.0024 79.4148 47 82 59
-47.2926 -27.2919 75.4864 78 93 100
-47.3522 -25.3486 75.3872 31 48 36
44.898 -4.00493 78.9716 43 79 56
45.9209 -2.38892 78.9431 48 80 61
-47.1477 -27.3956 74.9679 76 93 102
44.3246 -6.00262 78.5642 33 69 48
44.6079 -5.00646 78.5289 37 73 52
44.7778 -3.91448 78.483 42 77 58
43.6719 26.8713 76.8885 43 81 68
-46.8513 -27.5981 74.4625 76 93 101
-46.9102 -25.6569 74.3616 30 47 37
43.0853 -27.3424 79.098 36 70 52
43.3362 -26.9459 79.091 35 70 51
45.0552 -2.92038 77.9691 43 76 59
-46.2714 -27.352 73.9497 46 62 61
42.6035 -27.5686 78.6151 36 71 52
44.2285 -7.7849 77.6947 38 73 56
44.6809 -5.70208 77.6125 36 68 53
44.7649 -3.92322 77.5265 35 66 53
43.6586 26.8623 75.9038 44 77 66
43.2969 -27.5257 78.1804 37 72 52
44.6165 -4.42642 77.0663 33 62 52
44.9284 -2.83393 77.0012 35 68 54
44.2358 28.9464 75.3354 95 135 145
44.1296 -7.10918 76.7008 38 69 57
44.5241 -3.74212 76.5479 32 62 49
43.8803 26.6423 74.9426 41 77 64
-45.8387 -27.6626 72.3984 50 66 68
43.2842 -27.5342 77.2423 39 73 54
-46.1486 -27.4701 71.8413 48 64 64
44.283 -3.56083 75.5684 31 60 51
45.3072 -1.9428 75.5398 36 69 51
-20.1975 -25.396 72.6492 23 23 23
42.7963 -27.7646 76.2896 40 72 51
43.2716 -27.5428 76.3043 40 73 53
44.1379 -6.5309 75.2391 35 67 53
43.832 26.0024 73.4979 41 79 70
44.0951 26.418 73.4906 44 78 70
-46.6175 -27.1835 70.7392 48 64 64
44.4425 -4.94685 74.6943 36 70 52
-47.3443 -27.9867 70.2102 110 129 139
42.6715 -27.686 75.34 39 72 54
43.1468 -27.4641 75.3552 39 74 57
-47.0675 -27.543 69.6714 78 96 98
42.8832 -27.869 74.424 38 72 51
43.2463 -27.56 74.4283 40 74 54
44.3316 26.8156 71.5158 41 79 64
44.5061 27.9641 71.4632 62 102 103
45.1498 28.6899 71.4611 112 145 165
2.54224 -24.7767 71.3953 20 21 22
46.215 12.9034 71.9031 39 73 55
45.4949 15.4448 71.7203 41 74 57
45.1431 28.6854 70.969 113 148 169
42.3951 -28.0997 73.4696 36 68 52
42.8706 -27.8776 73.4858 38 71 55
43.1215 -27.4812 73.4787 40 72 58
44.9215 -4.16089 72.29 39 75 57
44.641 25.8649 70.6038 44 81 67
44.4928 27.9551 70.4787 60 101 102
-46.9837 -26.3678 67.4876 36 48 35
42.9967 -27.4025 72.5287 41 71 54
44.6278 25.856 69.6214 44 75 66
45.1232 28.6719 69.4927 113 147 167
42.3761 -28.1126 72.0616 38 67 50
43.1025 -27.4941 72.0714 41 71 53
45.3249 12.3676 69.941 47 81 54
45.3824 13.5895 69.875 48 80 54
44.7438 17.9851 69.5853 42 73 54
-47.3221 -30.6035 66.1156 114 135 146
43.5711 -27.2767 71.6193 39 71 52
-47.0656 -29.5171 65.5395 114 132 142
-47.1841 -25.6401 65.3081 32 49 39
42.588 -28.2954 71.1472 37 69 52
44.6916 -5.86615 69.9847 45 77 56
44.1492 18.4884 68.5435 38 68 53
44.6716 19.3137 68.5289 36 66 51
44.2566 26.1579 68.1072 41 76 62
-47.2244 -29.4238 64.9941 111 132 141
-5.30503 -25.9944 67.4782 52 57 59
42.5817 -28.2997 70.6781 37 68 52
43.894 -27.547 70.7183 39 74 54
45.7914 -4.94367 69.5242 39 73 53
43.9697 17.3518 68.1099 45 75 55
44.1143 17.8664 68.0892 40 68 52
44.25 26.1534 67.6156 41 75 61
44.6962 -27.5912 70.3044 40 74 56
45.0769 -7.43233 69.147 48 77 59
44.6298 18.6868 67.5866 33 65 45
43.295 -27.69 69.7508 41 74 56
44.8995 -6.06758 68.5785 46 79 58
45.41 -5.26118 68.5642 39 73 54
45.2111 -4.47992 68.5051 39 73 54
43.7236 17.5474 67.1067 47 77 53
44.1012 17.8575 67.1131 44 73 53
44.4606 -27.4255 69.3433 42 76 54
44.7329 18.5754 66.6242 39 67 52
45.7478 19.6068 66.6298 35 66 51
44.0315 16.6155 66.207 51 82 56
44.1761 17.1296 66.1858 50 81 54
45.2195 18.7781 66.1567 39 67 51
-47.989 -25.1712 62.0358 32 51 37
-8.15045 -25.8821 64.7657 27 31 34
-7.07483 -25.4069 64.8095 65 70 73
44.5595 -27.5212 68.4197 43 76 58
44.4151 4.23801 66.4927 47 79 58
44.2886 14.4624 65.8669 50 82 61
44.317 15.0761 65.8317 50 81 59
44.3736 16.3055 65.7614 51 83 56
45.3577 19.2884 65.6477 38 67 50
44.9149 -27.2171 67.9575 41 74 57
44.9455 18.357 65.1885 42 71 50
45.2063 18.7692 65.1812 39 69 51
45.6411 20.3143 65.1169 33 69 47
-47.9831 -25.8301 61.0119 39 48 32
-7.22221 -25.3217 63.7857 62 67 67
44.1723 4.42459 65.501 45 78 55
44.8562 11.4038 65.1206 47 78 58
44.4198 14.9659 64.8725 49 80 60
44.5925 16.0931 64.8153 51 83 58
45.5185 20.4128 64.6145 35 71 51
-49.3504 -30.0229 60.6433 113 135 145
44.7893 15.2712 64.3929 49 81 58
44.1592 4.41577 64.5365 41 73 53
45.1587 15.5764 63.9136 49 81 57
42.6571 -27.859 65.9665 43 75 54
43.9967 -26.5357 65.9787 42 74 53
44.0099 3.90625 64.0758 40 72 52
45.5857 14.554 63.5216 49 82 57
-21.0459 -26.2758 60.8393 39 43 41
45.6369 15.7755 62.9629 46 78 57
45.7815 16.2878 62.941 46 75 58
-48.2015 -29.5376 58.5709 109 134 139
-47.7657 -29.1874 58.5802 110 133 139
-47.0001 -25.2588 57.8549 34 48 40
43.7539 -26.3735 64.5445 40 74 54
43.9601 -14.5559 63.8051 39 71 57
45.566 14.5407 62.0647 50 79 59
45.6238 15.7667 61.9907 48 76 57
-23.7123 -26.9729 59.1477 33 37 37
44.3781 -15.5079 63.4231 37 70 53
44.4332 -14.3425 63.3523 37 74 52
45.5307 11.3822 61.7797 45 77 55
45.646 13.8234 61.6313 45 75 58
45.7618 16.2745 61.4822 38 71 52
-48.5274 -29.3557 56.9433 112 131 141
-28.0743 -27.7693 58.3603 50 55 50
-23.8603 -26.8816 58.6159 31 37 34
43.2663 -26.6035 63.5853 41 73 56
44.5121 -15.0211 62.9284 38 72 49
44.8075 6.3138 61.5698 35 67 48
45.5529 14.5318 61.0935 45 73 56
-28.2243 -27.6778 57.8255 48 50 48
-24.8498 -26.8414 58.0241 30 40 35
13.0558 -25.9305 60.807 25 25 19
42.8967 -26.9169 63.1088 41 71 54
44.6206 -17.5316 62.6267 34 59 44
44.9843 -14.8078 62.4766 38 70 49
44.8559 10.0462 60.848 42 70 54
45.4025 11.4733 60.796 40 72 56
45.5464 14.5274 60.6078 44 70 54
45.6041 15.7533 60.5323 38 70 46
45.7487 16.2656 60.5098 37 72 47
-48.5417 -29.3654 55.8811 112 132 146
41.2101 -27.9845 62.5819 37 63 45
44.6695 -16.3751 62.0824 33 59 41
44.8638 -12.2942 61.8295 37 72 59
44.9195 -11.1231 61.757 37 72 57
44.7077 7.00819 60.552 38 68 52
45.6839 12.488 60.2665 37 66 48
45.5975 13.1989 60.2134 37 65 48
-26.5601 -26.3236 56.8279 34 45 44
13.941 -25.3861 59.8584 19 32 22
44.2152 -18.4286 61.7107 29 52 38
44.7204 -17.6306 61.6966 26 54 40
44.7757 -16.4701 61.6242 29 53 42
44.9438 -15.3985 61.5663 33 55 45
44.0728 3.77347 60.2343 38 71 52
44.6729 6.39892 60.1068 33 66 48
45.3894 11.4645 59.8272 39 69 51
45.5045 13.9064 59.6748 31 65 51
45.4466 15.2324 59.5828 39 73 51
-48.5561 -29.3751 54.819 114 133 145
41.6742 -27.7706 61.6636 38 67 52
44.738 -12.2108 60.8658 32 62 44
44.7936 -11.0393 60.7923 37 67 52
44.0384 3.16702 59.7902 41 75 55
44.6947 6.99936 59.5861 35 67 53
45.4116 12.0696 59.3045 37 68 52
45.3825 14.0028 59.1738 34 65 55
41.4759 27.1359 58.0003 36 73 49
44.6227 -16.9687 60.7007 32 60 44
45.2612 11.5556 58.8427 39 69 51
45.549 12.575 58.7969 38 68 52
45.2892 14.7117 58.6339 38 66 51
45.2023 15.4261 58.5793 34 62 46
44.9981 18.8093 58.3372 35 65 50
41.3235 26.6082 57.5301 38 72 49
41.5876 27.0255 57.5227 37 74 51
-46.4499 -25.6955 53.6748 30 48 35
13.7837 -25.9051 58.4118 26 33 27
44.8969 -15.9929 60.1841 32 60 46
44.7808 -11.048 59.8422 28 56 42
44.1682 3.66272 58.804 38 70 49
44.2802 6.07608 58.6503 34 68 45
45.1097 13.5837 58.21 39 71 50
45.2532 16.6501 58.0149 33 63 45
41.9908 27.9615 56.9978 39 75 55
44.804 -12.9006 59.4947 31 68 44
44.6613 -10.9598 59.3519 27 61 41
45.0745 12.9679 57.7637 41 73 51
45.1318 14.1913 57.6854 35 65 46
45.4493 15.8281 57.5996 32 62 45
45.2467 16.6456 57.5282 33 63 45
42.783 26.5872 56.6599 37 71 52
42.8109 27.215 56.6195 38 72 52
-49.0629 -28.453 52.5924 115 134 144
-46.1608 -25.9038 52.6501 31 48 38
44.768 -11.0567 58.8921 33 67 44
44.4155 1.55983 58.0038 41 75 51
44.2422 2.95481 57.8949 40 72 52
44.9525 13.064 57.2624 40 70 49
44.1893 22.721 56.5431 37 71 51
42.2218 25.1232 56.2224 38 72 52
-18.2281 -25.8491 54.3633 26 41 27
41.6425 -27.7921 59.314 42 70 53
44.4846 -16.8955 58.7951 36 70 50
44.2505 -9.42236 58.2635 38 72 49
44.4932 3.35725 57.4062 39 73 53
45.0615 12.959 56.7932 38 66 51
44.8589 13.772 56.7211 34 62 49
45.1761 15.4083 56.6344 29 62 43
42.8596 25.8457 55.7319 39 73 50
43.151 26.8889 55.6837 40 74 53
-49.9732 -28.5174 51.4599 114 133 145
44.1581 -8.74466 57.7333 38 72 49
44.0273 3.74263 56.8606 38 75 51
44.0238 6.2551 56.6868 38 72 52
43.1724 27.5122 55.1501 41 75 55
42.3312 -27.7532 58.4282 43 76 55
44.8139 18.2679 55.434 34 64 49
42.8464 25.8367 54.7472 38 72 51
43.2835 27.4019 54.6742 42 72 55
42.868 29.0844 54.5233 54 91 96
41.2595 -28.1148 57.8958 37 65 48
44.0143 3.73382 55.8966 42 76 53
44.154 6.75295 55.6971 38 70 51
45.244 12.1344 55.4108 34 64 48
43.6668 22.4968 54.5562 35 69 47
43.1031 26.2482 54.2474 40 74 51
-49.0987 -28.4773 49.9334 114 133 142
-46.1966 -25.9281 49.9955 34 48 37
41.6172 -27.8093 57.4343 41 70 51
42.2061 -27.6744 57.4738 44 75 56
44.0915 5.53906 55.2943 43 73 55
44.4521 18.5663 54.4079 31 61 46
43.6883 23.1151 54.0244 37 71 49
43.5994 23.8428 53.9658 38 72 49
43.3597 26.6598 53.7477 43 76 54
-49.8276 -29.2824 49.3977 113 134 140
42.0873 -27.5914 56.9886 43 76 56
44.085 5.53465 54.8116 42 76 56
44.2561 6.64561 54.7474 41 72 53
44.9117 15.5889 54.1694 31 58 46
44.8816 17.5358 54.0291 30 60 42
43.5084 21.9697 53.6 34 64 49
43.0618 25.6127 53.3047 39 73 50
-49.6819 -29.3857 48.8857 113 132 144
-49.3975 -28.9364 48.8777 114 131 143
41.2662 -27.5556 56.4472 38 70 51
43.5862 23.8339 52.9839 38 68 50
43.1728 25.503 52.8301 37 71 51
43.3184 26.024 52.8053 39 73 53
43.4923 27.1724 52.7382 41 75 53
44.1279 6.73528 53.7644 43 75 54
44.5015 7.04495 53.774 42 74 53
43.1159 21.6502 52.6095 37 71 48
-47.645 -28.1906 47.9115 113 126 132
44.5467 13.326 52.8424 40 69 51
43.5683 26.4308 51.8137 38 73 54
43.6248 27.6854 51.7281 41 83 68
-49.0929 -29.7936 47.3717 111 133 140
-48.9612 -29.2464 47.3434 111 133 141
44.2301 6.62795 52.8151 43 76 54
44.5166 7.64176 52.7664 43 75 51
45.2048 12.1078 52.5022 41 71 51
43.1026 21.6413 51.6288 41 76 64
-47.6593 -28.2003 46.8496 112 128 130
44.1676 5.41445 52.4154 45 77 56
44.7061 14.441 51.804 34 57 47
44.9075 16.1809 51.6946 25 51 36
-48.9547 -29.9015 46.3298 113 132 142
1.59739 -25.7165 50.4713 47 53 47
40.7571 -27.7996 54.0701 36 62 46
41.0087 -27.402 54.0631 40 68 52
44.217 6.61911 51.849 43 75 54
44.2731 7.83062 51.765 44 74 51
-47.5217 -28.3086 45.8086 115 128 132
40.8894 -27.3187 53.5761 39 68 52
44.2695 5.30763 51.4677 41 73 52
44.5773 14.5332 50.814 35 61 49
43.172 20.9027 50.2192 32 63 47
44.0148 23.3894 50.1104 52 79 64
43.894 26.0969 49.8999 40 73 53
1.71382 -25.8188 49.4933 51 59 51
44.2911 5.90722 50.9429 42 75 50
44.2601 7.82178 50.798 43 74 51
44.3163 9.03568 50.7129 43 72 49
40.5119 -27.6375 52.6252 35 63 49
44.1975 6.60587 50.3998 41 75 52
43.5098 20.5833 49.2941 34 64 52
44.1186 23.2762 49.1478 48 80 61
43.9374 27.3411 48.8279 38 72 65
41.3479 -27.1093 52.1909 44 74 56
44.191 6.60145 49.9168 41 75 53
44.1317 7.91184 49.813 43 73 55
43.1522 20.8892 48.7493 33 61 50
43.3252 22.0287 48.6794 41 74 57
44.0802 25.2478 48.5061 47 75 58
44.0198 26.6042 48.3988 42 67 57
-47.6823 -28.8749 43.7147 156 159 141
-45.828 -26.2837 43.6885 37 50 37
1.82344 -25.9256 48.0179 61 66 59
44.0727 4.18138 49.606 42 73 55
44.4734 5.09403 49.5737 43 74 56
44.1054 23.2672 48.1671 45 75 52
41.3352 -27.1179 51.2502 43 73 58
44.4694 2.58415 49.2821 42 73 55
44.3828 3.28243 49.221 41 73 56
44.0907 7.29675 48.8891 43 72 52
44.1748 9.11731 48.7585 41 69 54
43.312 22.0197 47.6987 39 67 46
44.0065 26.5953 47.4151 38 67 46
-46.8648 -26.8933 42.5785 57 56 31
27.2058 -28.8418 49.6006 76 77 62
40.7383 -27.2569 50.7353 37 65 49
44.1499 0.973464 48.8946 43 74 54
44.664 1.78572 48.8803 42 73 54
44.6317 6.19469 48.5404 44 74 50
44.3937 13.9947 47.9223 36 61 45
44.0921 23.2583 47.1864 41 70 49
41.2096 -27.0389 50.2921 40 71 52
42.3886 -26.7702 50.3817 40 74 53
44.4565 2.57535 48.3198 43 75 54
43.5048 21.1817 46.801 36 70 52
44.0537 25.2298 46.5413 35 63 51
-47.731 -28.2488 41.5404 182 168 145
44.2793 1.46753 47.9079 41 71 50
44.6208 3.67606 47.7694 43 76 55
44.2929 14.7001 46.8866 30 57 44
43.9902 23.9768 46.1412 35 63 47
44.1357 24.4961 46.1147 35 63 48
44.4529 28.7739 45.814 146 172 153
40.6061 -27.1821 49.3055 36 67 50
42.2634 -26.6911 49.4246 41 73 58
44.3288 2.66366 47.3392 44 77 57
44.6122 6.18145 47.0927 43 74 56
43.9836 23.9724 45.6505 33 61 46
44.012 24.5963 45.6047 33 62 47
-47.5733 -29.0023 40.5531 179 171 151
-47.0059 -28.1058 40.5373 153 144 120
41.6678 -26.8297 48.9088 41 75 54
44.5235 1.86498 46.9392 39 70 49
44.3223 2.65926 46.8579 43 74 52
44.3783 3.86221 46.7693 45 77 55
44.1356 14.179 45.9399 37 62 50
43.747 21.5822 45.3242 31 55 44
44.094 23.8634 45.1791 33 62 48
43.5036 26.9948 44.878 34 66 48
43.5318 27.6223 44.8316 34 73 54
44.3222 28.871 44.8095 149 172 151
-46.8614 -28.2092 40.0291 158 147 122
40.5934 -27.1908 48.3638 36 67 47
42.4757 -26.8749 48.5201 38 75 53
44.0896 0.352562 46.5359 40 66 49
44.2229 8.38419 45.9175 42 71 49
43.0609 11.9187 45.528 33 63 47
-47.7395 -28.9137 39.4697 188 176 151
-46.3205 -26.6718 39.43 40 50 35
43.6668 9.48402 45.2932 40 69 53
43.1152 10.5922 45.1522 36 66 49
43.4008 27.7192 43.8266 35 72 53
44.3089 28.862 43.8243 146 169 147
32.7038 -28.8804 46.787 117 123 113
44.08 -2.14164 45.7728 44 75 49
43.9066 -0.756356 45.6459 39 67 48
44.216 3.34456 45.3503 39 69 53
43.2801 11.709 44.5944 35 64 47
43.3482 21.2584 43.8423 30 58 44
43.4322 23.1251 43.7022 29 59 43
43.0467 25.4175 43.4825 33 63 46
43.0746 26.0439 43.4355 34 64 47
44.3187 8.27189 44.4854 44 71 51
43.45 10.2836 44.2393 40 66 50
15.0762 -27.1344 43.9519 44 57 45
44.1845 -4.71927 45.0321 42 73 51
44.3819 -3.03191 44.9162 45 75 54
44.3235 -1.74539 44.8071 41 66 49
44.0882 3.43314 44.3679 38 65 47
43.7588 11.9099 43.6544 32 61 45
44.2126 19.1843 43.1151 28 56 42
44.3859 20.319 43.0411 28 57 42
43.8591 22.0775 42.8478 27 58 43
42.9158 25.5137 42.4784 34 62 49
42.7082 26.3511 42.3906 35 62 51
42.6459 27.7128 42.2751 38 67 53
-47.869 -25.6988 37.076 43 52 39
44.292 -4.81825 44.573 43 73 53
44.7663 7.86735 43.5959 40 71 51
44.4491 8.77087 43.4914 38 70 50
43.9279 10.4849 43.301 36 67 48
45.021 15.8977 42.9729 30 58 44
44.2941 18.4593 42.6936 28 56 41
44.3509 19.6955 42.5994 29 57 41
42.8472 26.8684 41.8704 35 65 50
44.8071 -18.631 45.2683 41 71 52
44.2997 -17.0208 45.0867 42 75 53
43.8731 4.2218 43.3194 39 58 46
-38.4024 -27.5118 37.1166 29 41 31
15.0564 -27.1478 42.4869 48 56 45
44.6332 -19.7014 44.8668 41 69 53
44.9407 -18.1467 44.7709 39 67 48
44.5186 -17.2061 44.6515 39 69 49
44.6588 -16.7163 44.6257 41 72 52
44.3759 -15.281 44.48 43 76 55
44.8481 -5.2994 43.7131 40 73 51
43.9538 3.51735 42.9031 44 71 51
43.8944 4.82058 42.7908 35 58 45
44.61 7.35155 42.6565 42 70 49
44.1179 9.66782 42.4177 38 63 44
42.0983 26.8657 40.8101 34 66 50
-38.4095 -27.5166 36.5918 28 40 30
43.8555 -11.2273 43.6214 39 74 51
44.3642 -10.4237 43.6072 39 73 51
44.165 -9.65032 43.5235 39 73 52
44.3142 8.85678 42.0201 36 56 44
44.2269 9.56388 41.9532 34 54 41
44.1395 10.272 41.8862 32 54 38
44.6558 13.6343 41.6629 27 53 41
43.8968 18.1359 41.2163 30 58 43
44.928 -18.1553 43.8274 34 64 46
44.6737 -16.1442 43.6355 38 73 51
44.2574 2.61526 42.0455 43 71 53
43.7663 4.90963 41.806 44 64 51
44.9662 15.2661 41.0746 28 55 38
44.1231 17.9266 40.7689 30 58 41
44.5288 18.8538 40.7339 30 62 41
44.4409 19.5747 40.6655 31 63 41
42.5294 25.8069 39.9557 36 65 49
42.7027 26.9561 39.8787 38 68 51
-38.2759 -27.6238 35.5655 29 38 29
44.195 -21.1768 43.5309 38 69 51
44.695 -15.5671 43.1173 40 73 51
44.1246 -10.2469 42.6174 40 74 54
44.379 -9.84492 42.6103 40 73 54
44.6613 -8.85462 42.5573 41 73 52
45.1695 -5.59535 42.3394 39 71 50
44.7393 0.329118 41.8038 46 74 57
44.3376 1.91343 41.6311 45 69 54
43.9343 3.50414 41.4576 45 67 54
44.4164 8.74875 41.0724 28 42 38
44.5011 10.5729 40.9299 26 46 35
44.6427 13.6254 40.6914 25 53 38
44.8153 14.7496 40.616 28 56 40
44.3591 2.50938 41.103 45 64 49
43.7533 4.90081 40.8409 38 54 46
44.8423 7.74207 40.717 28 45 35
44.5816 9.86027 40.5134 25 44 34
44.8373 15.3585 40.0817 29 56 43
44.3425 17.7131 39.8341 30 57 44
44.6034 18.1252 39.8268 31 59 43
40.8064 26.0195 38.7749 34 64 46
41.3345 26.8539 38.7601 36 67 48
41.8627 27.6883 38.7454 37 71 50
43.6827 -24.3688 42.8035 41 73 54
43.934 -23.9717 42.7965 40 74 54
44.0155 -22.2481 42.6606 41 71 53
44.2527 -9.76068 41.6391 42 74 55
44.535 -8.7701 41.5856 41 72 50
45.0151 -6.10128 41.4122 40 71 51
45.0431 -5.50983 41.3655 38 69 49
44.5538 1.71102 40.7095 40 62 48
44.4673 2.40794 40.642 39 60 47
44.5186 8.64079 40.1252 27 48 32
44.3981 13.8182 39.6788 28 54 43
44.5399 16.8883 39.4364 29 56 44
43.7403 4.89198 39.8757 32 59 48
44.5709 7.32506 39.7581 32 58 40
44.9428 10.1609 39.5584 24 47 33
44.8242 15.3496 39.109 28 56 42
44.7349 18.6309 38.8232 32 60 45
41.3484 27.4741 37.7225 35 69 49
44.2676 -9.18111 40.6405 41 74 54
44.4365 -8.09628 40.5666 36 68 48
44.3507 -7.41275 40.4996 38 71 50
43.9919 5.29533 39.3859 34 61 46
44.1348 5.80131 39.3582 34 59 47
44.3903 8.73106 39.1373 30 51 35
44.6143 16.1625 38.5319 30 56 42
44.439 17.5975 38.3919 29 55 41
44.1695 -25.9662 41.5824 42 72 57
44.1087 -22.3499 41.2683 42 71 55
45.6748 -16.4056 40.9293 40 71 52
43.8423 4.78529 38.9312 47 71 56
44.1283 5.7969 38.8755 38 59 47
44.8111 15.3408 38.1362 29 53 42
44.8379 18.5195 37.8686 32 60 44
45.5045 19.8586 37.8257 35 65 47
-48.6078 -28.4941 31.3866 197 196 180
-47.7754 -26.4998 31.3053 74 72 59
-18.0778 -26.9409 34.5258 33 49 40
42.0106 -27.253 40.9925 44 75 56
44.9403 -19.4316 40.6377 32 60 43
44.0276 -9.00342 39.6481 40 74 54
44.4236 -8.10499 39.6137 41 71 53
44.5928 -7.01857 39.5389 46 74 55
43.4674 1.96505 38.65 46 78 56
43.9824 2.77875 38.6356 46 75 59
43.9788 5.28651 38.4208 36 59 46
44.3773 8.72222 38.1697 30 53 35
44.833 15.9503 37.6004 30 54 43
44.8902 17.1802 37.5014 29 56 44
45.1785 20.7817 37.2243 36 66 48
31.3042 -28.5535 39.48 56 74 96
44.8678 -3.56409 38.7951 47 78 53
44.0873 5.18413 37.9591 37 62 52
45.1164 14.4152 37.2766 29 53 42
45.4914 19.8497 36.85 36 66 48
42.205 27.9723 35.7974 42 74 50
38.2208 -27.897 39.6978 36 54 38
40.5922 -27.3559 39.9085 38 64 49
43.7298 -25.0558 40.0504 43 75 54
44.2972 -8.02022 38.6403 43 76 54
44.58 -7.02729 38.5853 46 76 58
43.795 4.1689 37.5329 46 66 54
45.1968 13.6979 36.8619 28 52 42
45.3977 20.5665 36.2904 36 66 48
40.8136 27.2462 35.2158 40 69 50
44.9475 -16.4595 38.9678 38 72 51
44.6851 -4.66484 37.9152 46 75 52
43.7926 1.66112 37.2685 57 77 55
44.2174 5.68104 36.9659 55 80 57
44.2734 6.89039 36.867 52 70 52
45.1033 14.4064 36.3051 29 53 43
45.3333 19.3259 35.9032 34 63 46
41.9552 28.1756 34.7659 42 75 52
45.141 -24.4029 39.21 42 76 54
44.6649 -22.2403 38.969 40 69 50
44.9148 -19.4489 38.7529 34 62 48
44.9703 -18.2928 38.6581 38 68 53
44.012 3.96483 36.6108 52 74 57
45.2396 20.0421 35.343 37 64 48
45.2973 21.2799 35.2413 39 68 51
0.849081 -26.1017 33.9917 27 39 30
44.6545 -17.4474 38.0777 39 69 51
44.023 -8.43599 37.2177 61 74 57
44.2633 4.36767 36.1216 50 66 59
44.3755 6.78303 35.9223 52 63 53
44.4036 7.38841 35.8723 62 76 56
45.6097 12.6715 35.5424 35 59 45
45.6386 13.282 35.4921 32 53 44
45.1189 15.0102 35.2831 29 51 42
45.1456 20.7594 34.7819 39 67 51
45.4358 21.7918 34.7235 39 67 52
41.9419 28.1666 33.7781 43 75 54
-48.7826 -29.0707 28.232 206 198 176
44.731 -15.7099 37.4613 39 70 50
43.7343 -9.43204 36.7971 57 69 55
44.1855 -7.35387 36.6642 51 63 42
44.8075 -4.17951 36.4537 58 80 59
44.2848 4.96619 35.5897 47 62 56
44.9941 20.2391 34.3228 37 65 49
41.4342 27.9571 33.2465 44 73 52
43.7482 -21.5417 37.395 39 62 50
44.612 -15.6233 36.9676 38 69 50
43.7553 -8.8474 36.2717 49 61 38
44.0102 -8.44471 36.2646 52 64 45
44.3063 5.56533 35.0571 51 75 58
44.5339 7.88667 34.8771 53 82 49
45.8559 13.0722 34.5659 30 54 43
45.6833 14.496 34.4205 30 54 43
44.9875 20.2346 33.8344 36 63 47
-48.9285 -29.6276 27.2034 201 196 167
-47.6003 -29.2218 27.3169 199 198 174
44.7737 -14.5546 36.418 46 76 57
44.6529 -4.68668 35.5263 56 82 52
44.2718 4.95737 34.6252 50 77 61
44.443 6.06675 34.5458 50 78 54
44.8091 16.5293 33.656 31 59 46
41.9219 28.1531 32.2965 46 75 54
-48.6516 -29.1837 26.6644 198 191 160
43.9602 -21.7284 36.4942 37 57 43
43.8561 -8.94939 35.3398 48 73 59
44.4083 5.45843 34.114 50 77 59
45.0905 20.1227 32.8801 37 65 50
45.4094 21.7739 32.7686 39 68 53
41.0583 28.2625 31.6953 44 75 52
-47.7665 -29.1332 26.2301 195 186 162
44.5563 -6.47133 34.7208 47 75 54
44.3539 -3.22333 34.4059 50 78 55
44.6099 -2.81893 34.3988 52 79 55
44.6598 5.86157 33.6245 48 72 57
44.8514 20.3243 32.3469 38 69 75
44.6034 -2.8233 33.9202 48 75 55
44.6875 -1.03615 33.7685 44 71 52
44.738 7.67141 32.9881 42 72 54
44.3252 16.9235 32.1054 34 66 74
41.5466 28.4584 30.7453 57 103 142
43.9411 -21.7413 35.0817 37 61 50
44.2329 -8.06379 33.8746 44 72 52
44.569 -3.42222 33.4923 49 76 56
44.6186 5.24919 32.7114 50 75 66
44.4632 17.4329 31.5881 46 84 116
44.9846 18.2567 31.5736 53 92 146
-48.6803 -29.2031 24.5401 192 178 153
43.942 -26.51 35.046 48 77 56
44.8529 -12.2413 33.8511 47 77 57
44.6547 -11.4716 33.7579 48 77 56
44.6685 6.45245 32.1257 47 79 89
45.2988 9.6923 31.9036 53 91 145
44.312 16.9146 31.1307 62 106 159
45.2099 18.0477 31.1317 71 113 177
41.6518 28.343 29.7802 88 126 200
-46.1504 -24.5212 23.8761 63 80 116
43.8238 -26.4267 34.5561 47 79 57
43.9284 -21.7499 34.14 37 66 48
44.9567 -7.4544 32.9508 41 69 59
45.1262 -6.36775 32.8711 45 75 67
45.0408 -5.68258 32.7984 47 76 71
44.6338 5.84393 31.6952 54 92 109
44.6034 7.75692 31.5165 64 101 142
44.4216 16.8082 30.6663 76 120 193
-45.9676 -25.9206 23.4953 65 82 116
23.3186 -28.6637 31.8852 40 62 93
43.9835 -25.3753 34.0096 51 79 64
43.9493 -21.1781 33.6193 40 64 52
44.5265 -8.946 32.5616 42 72 49
44.9195 -3.12626 32.0722 46 81 126
44.3104 6.73888 31.0929 71 114 167
44.5595 17.3175 30.1487 82 125 199
41.9386 26.7575 28.9723 89 127 205
42.0843 27.2801 28.9413 88 127 205
43.8886 -22.3342 33.2483 43 65 57
44.9732 -9.32268 32.1735 41 80 90
44.9144 -5.59708 31.8222 56 96 121
44.4085 16.7993 29.6918 85 126 202
-45.9819 -25.9303 22.4341 66 80 119
23.1855 -28.5832 30.8987 57 80 121
44.1339 -21.9408 32.7707 37 58 49
44.9922 -3.82376 31.1899 76 119 191
44.7785 17.1045 29.2206 83 127 203
41.9253 26.7485 27.9858 89 129 206
36.5367 -29.1245 32.0629 37 57 69
43.9104 -26.5314 32.7021 40 72 79
44.6057 -24.1106 32.5593 39 67 92
43.9882 -22.4316 32.3288 32 61 89
44.7966 -17.6841 31.9824 45 87 99
45.1005 -6.38518 30.9643 84 126 200
43.5531 16.8883 28.6076 85 128 202
42.5365 26.8435 27.5571 91 129 208
42.8281 27.8883 27.4944 91 129 199
-46.167 -25.1935 21.2823 64 78 115
-9.485 -27.5175 25.9088 57 78 121
36.8738 -29.3913 31.6561 47 70 109
44.4029 -23.3649 31.996 47 84 148
44.6481 -15.7661 31.3131 69 116 174
43.2022 14.626 28.29 88 129 203
43.7469 -19.8663 31.1178 77 116 190
43.5757 -18.5291 30.9711 79 118 190
44.7526 -13.4402 30.6341 85 128 201
42.8768 26.5177 26.6439 90 132 209
-46.6171 -25.5526 20.2003 64 82 110
43.6407 -26.9403 31.3028 77 120 187
44.4125 -18.0057 30.5512 85 122 197
43.8765 -16.9736 30.3884 84 123 197
42.1075 25.8916 26.1176 90 131 207
43.2512 26.8237 26.1684 92 132 205
-47.6287 -26.805 19.6648 92 93 106
-46.0368 -25.3075 19.7171 63 81 114
44.2144 -22.0512 30.4398 86 127 204
42.8635 26.5087 25.659 90 131 203
44.3749 -20.993 29.8883 89 130 206
43.0781 -18.7611 29.5158 89 128 204
44.1584 17.5882 26.1778 79 113 148
42.0942 25.8826 25.1321 89 128 208
43.1203 26.9203 25.1591 92 130 209
44.1136 -18.9964 29.1941 88 126 204
44.5288 17.8936 25.707 84 125 173
42.8503 26.4997 24.674 90 130 208
-49.0712 -29.0645 18.1104 181 170 149
-47.0818 -25.9216 18.0549 66 81 108
-46.1907 -25.8699 18.1607 64 81 110
42.085 -29.9035 29.5213 64 92 147
43.6067 -22.1951 28.9678 90 130 210
43.6338 -21.6192 28.9156 90 130 212
43.4233 15.0109 25.3601 152 174 181
43.107 26.9113 24.1742 91 132 205
43.0172 27.6448 24.0923 94 132 203
-7.78595 -27.5421 22.5919 78 95 131
44.304 -24.5415 28.8115 92 132 214
44.4681 -21.0951 28.4985 86 126 208
44.6035 -15.7964 28.0025 90 128 190
43.9097 15.2151 24.9144 189 201 207
44.8639 17.5781 24.805 92 114 179
42.4834 26.8074 23.6142 91 129 204
42.7748 27.8522 23.5495 94 132 202
-46.5083 -25.6811 17.0417 66 81 113
42.2107 -29.4294 28.5547 65 95 151
43.8731 -21.2297 27.9664 90 132 213
44.5971 -15.8007 27.5296 92 118 176
44.1917 16.2368 24.3641 201 212 206
41.8314 26.0754 23.111 93 128 209
-47.1033 -25.9362 16.4608 65 80 108
-46.3638 -25.7853 16.5395 64 80 110
-7.3965 -27.2194 21.6029 60 80 118
0.0130409 -28.7748 22.691 73 89 131
45.2385 -19.3335 27.4831 92 122 182
44.4505 -16.2955 27.0868 78 101 189
44.9841 -14.9147 27.0194 65 97 161
44.3626 -13.1998 26.7734 57 101 129
44.164 -12.4312 26.6733 57 105 118
44.3323 -11.352 26.5892 63 113 104
43.9064 -10.3948 26.4419 68 115 99
43.1708 15.2005 23.8495 206 212 218
44.2134 16.8477 23.8204 197 201 218
44.9667 17.4671 23.8551 106 124 191
44.908 18.8023 23.7173 89 127 204
42.3521 26.9041 22.6032 93 128 211
42.6436 27.9492 22.538 95 131 208
42.4487 -29.042 27.6104 72 104 172
45.1757 -18.0921 26.8828 80 94 139
44.9499 -15.5007 26.5999 86 111 178
43.9549 -9.22288 25.8578 123 173 178
45.2828 1.39212 24.9853 202 218 220
43.7901 5.15857 24.4262 207 215 225
44.4212 5.87596 24.436 207 217 217
44.7941 6.18535 24.4531 208 218 218
44.2665 15.5116 23.4713 207 211 198
41.5817 26.2776 22.0742 91 129 209
-15.673 -27.0235 19.5202 77 96 106
43.0557 -28.3413 27.1506 88 126 201
44.4701 -20.5359 26.5623 92 128 196
44.5503 -16.3948 26.1645 141 164 183
44.0654 -11.7621 25.6462 174 153 172
43.78 -10.3107 25.4668 167 161 170
44.5297 5.77338 23.9779 213 205 198
44.7876 6.18094 23.9707 211 208 200
43.9996 15.0958 22.9918 201 209 206
41.7479 27.4243 21.4897 93 129 204
42.5482 -29.1374 26.696 69 101 166
44.3542 -22.8423 26.305 90 131 207
45.1074 -19.2567 26.0469 80 116 164
44.8245 -15.4184 25.6308 183 199 210
43.942 -9.23158 24.9053 191 188 171
43.9794 4.35075 23.5661 211 198 198
44.8613 15.6094 22.5653 203 214 204
41.3861 27.738 20.9189 93 129 205
-16.5067 -27.7042 18.4624 112 114 117
8.67146 -28.3248 21.7742 58 81 125
44.3452 -20.4552 25.597 99 130 179
44.5376 -16.4035 25.2191 195 210 219
43.7672 -10.3194 24.515 97 109 95
40.9966 27.4221 20.4065 91 127 207
42.5356 -29.1459 25.759 68 102 159
44.1174 -22.6736 25.3182 90 131 207
44.5588 -15.8267 24.692 200 212 217
43.9292 -9.24029 23.9529 117 121 125
43.8314 -1.15444 23.1331 208 219 224
44.7964 6.77198 22.4671 119 143 125
44.9396 7.27832 22.4351 154 178 163
43.2266 14.4624 21.4957 213 220 224
40.99 27.4176 19.9123 90 126 205
-16.5204 -27.7135 17.4431 110 114 112
43.662 -22.3228 24.7537 89 130 206
43.6037 -21.0814 24.6217 92 131 206
44.7242 -19.5781 24.6171 80 114 131
45.0039 -18.6021 24.5558 181 214 231
44.4756 5.15223 22.1054 124 126 167
44.8465 7.97801 21.8706 183 213 213
44.6446 8.7823 21.7636 204 221 225
40.217 26.7899 19.3807 92 130 211
41.2476 27.8306 19.4108 93 128 204
42.4108 -29.0677 24.7984 71 101 165
44.2138 -20.3787 24.16 99 131 166
45.0519 -15.0361 23.732 178 171 185
43.8615 -10.4252 23.1117 187 197 223
44.7083 -7.45225 22.9234 200 218 233
43.7039 -1.06733 22.1488 211 222 224
44.9564 5.35927 21.666 136 146 175
44.7834 6.76315 21.5019 130 154 174
43.6784 14.0488 20.6235 210 221 227
43.0966 28.1222 19.1302 93 133 191
-16.259 -27.9123 16.4793 108 108 109
43.5909 -21.09 23.679 88 128 208
44.5992 -19.497 23.6509 85 117 133
44.8434 -6.96026 22.4154 209 219 226
44.923 2.25065 21.4945 165 175 179
44.8619 8.57529 20.8469 211 220 222
44.8902 9.18204 20.7893 214 221 224
44.2236 12.9278 20.3226 212 224 227
43.904 13.8423 20.188 211 222 227
45.0313 14.7714 20.2427 216 223 217
40.7974 26.2516 18.5237 92 131 211
41.0886 27.298 18.4563 90 126 206
43.4713 28.4282 18.6561 108 142 179
-48.4365 -28.3235 11.7484 165 156 132
-47.148 -26.6271 11.7469 74 81 102
-16.5383 -28.3473 15.9775 120 122 122
42.2597 -29.559 23.8918 68 94 159
44.0887 -20.2978 23.1936 97 127 164
43.7351 -10.3411 22.1357 206 220 215
43.6488 -9.6601 22.0551 208 211 184
44.3271 -7.77002 21.953 149 176 183
44.7513 -6.28005 21.8579 213 222 223
44.8021 2.34313 20.989 186 208 212
44.8286 5.44843 20.6771 185 207 204
44.942 7.86596 20.4466 206 215 219
-16.4103 -27.8269 15.4326 104 104 104
43.3676 -28.0666 23.419 91 132 212
43.4657 -21.0094 22.7123 91 129 210
44.4742 -19.416 22.6842 88 115 131
44.693 -12.3497 21.9926 202 217 219
44.8504 6.04749 20.1374 203 218 213
44.7921 7.35485 19.9963 210 220 218
44.1228 13.6316 19.267 217 212 200
40.9296 26.7657 17.5023 92 129 212
41.1938 27.183 17.4949 92 129 210
43.8392 28.7295 17.6895 124 150 163
-48.4508 -28.3332 10.686 160 152 130
-16.5521 -28.3566 14.9588 121 119 127
44.076 -20.3065 22.251 99 129 165
44.5182 -13.4309 21.6061 185 211 223
44.4882 -11.5844 21.4129 207 217 224
43.8358 -10.4426 21.2087 211 218 227
43.7496 -9.76186 21.1274 216 213 202
44.9655 -6.4767 20.9537 210 218 221
44.5927 -1.85066 20.43 213 218 226
44.7291 6.14126 19.6298 209 217 220
44.2321 13.5264 18.8069 198 185 154
-16.4241 -27.8362 14.4136 102 99 105
43.355 -28.0752 22.4821 90 134 211
44.3492 -19.3349 21.717 85 116 128
44.4818 -11.5888 20.9381 206 217 222
44.5349 -7.97012 20.5731 119 135 162
44.9871 -5.89012 20.42 212 220 215
44.6142 -1.25899 19.8935 214 216 215
40.7977 26.8625 16.4876 94 130 215
41.1805 27.1739 16.5071 95 130 213
43.9435 28.6144 16.7308 122 150 168
-48.1606 -28.5401 9.68507 156 147 136
-47.0248 -26.7456 9.65335 73 84 118
-16.8382 -28.7963 13.9477 120 121 130
-16.021 -27.5051 13.9249 88 87 93
44.0633 -20.3151 21.3084 101 132 164
44.1939 -12.5796 20.5271 205 216 220
43.9365 -10.5441 20.2821 208 216 222
43.9639 -9.95644 20.2251 211 214 224
44.1754 2.21006 18.9971 203 196 161
41.3564 25.7012 16.1896 93 132 210
43.4402 -21.0266 20.8266 94 132 210
43.9445 -20.2299 20.8126 99 129 163
44.3364 -19.3435 20.7739 87 117 128
44.522 -7.97883 19.6204 132 132 166
44.8048 -6.9864 19.5559 199 201 203
44.8607 -5.80469 19.4409 204 190 189
44.9729 -3.43424 19.2103 205 186 198
43.9357 4.90536 18.2044 147 145 145
44.5337 10.0613 17.7509 120 141 128
40.903 26.7476 15.5267 91 131 211
41.4313 27.5822 15.512 94 132 211
43.2575 27.2509 15.7946 93 130 200
-46.1105 -27.9932 8.8473 93 96 110
-16.0347 -27.5145 12.9062 88 87 92
44.3218 -12.0952 19.5459 210 211 204
44.1903 2.80192 17.9763 121 120 104
-48.7707 -28.8063 8.03783 151 147 130
44.3237 -19.3521 19.8308 87 122 127
44.9614 -5.90756 18.5123 161 165 158
44.7324 -3.25305 18.2032 114 120 144
44.9882 -2.84895 18.1961 118 132 144
44.2426 1.50011 17.6389 156 171 152
44.636 9.95291 16.8088 182 163 189
41.3907 26.9441 14.5863 91 131 212
43.7426 27.4466 14.8567 93 138 197
-48.9303 -28.7127 7.47523 150 146 127
44.0826 -11.9195 18.5459 165 144 120
44.498 -3.06724 17.6736 122 137 177
44.3987 10.1476 16.2721 164 133 137
44.5684 13.8094 15.9109 133 145 158
